613791.500000 6079237.500000 1716.000000
613791.500000 6079237.500000 1716.000000
613791.500000 6079237.500000 1720.000000
613792.000000 6079220.000000 1720.000000
613792.000000 6079220.000000 1720.000000
613792.000000 6079220.000000 1720.000000
613792.000000 6079220.000000 1724.000000
613792.000000 6079220.000000 1724.000000
613792.000000 6079220.000000 1724.000000
613792.500000 6079203.000000 1724.000000
613792.500000 6079203.000000 1728.000000
613792.500000 6079203.000000 1728.000000
613792.500000 6079203.000000 1728.000000
613792.500000 6079203.000000 1728.000000
613792.500000 6079203.000000 1732.000000
613792.937500 6079186.000000 1732.000000
613792.937500 6079186.000000 1732.000000
613792.937500 6079186.000000 1732.000000
613792.937500 6079186.000000 1736.000000
613792.937500 6079186.000000 1736.000000
613792.937500 6079186.000000 1736.000000
613792.937500 6079186.000000 1736.000000
612911.000000 6084585.500000 356.000000
612911.437500 6084568.500000 364.000000
612911.437500 6084568.500000 368.000000
612911.437500 6084568.500000 376.000000
612911.437500 6084568.500000 380.000000
612911.437500 6084568.500000 384.000000
612911.437500 6084568.500000 392.000000
612911.937500 6084551.500000 396.000000
612911.937500 6084551.500000 404.000000
612911.937500 6084551.500000 408.000000
612911.937500 6084551.500000 412.000000
612911.937500 6084551.500000 420.000000
612911.937500 6084551.500000 424.000000
612912.437500 6084534.500000 432.000000
612912.437500 6084534.500000 436.000000
612912.437500 6084534.500000 440.000000
612912.437500 6084534.500000 448.000000
612912.437500 6084534.500000 452.000000
612912.437500 6084534.500000 460.000000
612912.437500 6084534.500000 464.000000
612912.875000 6084517.000000 468.000000
612912.875000 6084517.000000 476.000000
612912.875000 6084517.000000 480.000000
612912.875000 6084517.000000 488.000000
612912.875000 6084517.000000 492.000000
612912.875000 6084517.000000 500.000000
612913.375000 6084500.000000 508.000000
612913.375000 6084500.000000 516.000000
612913.375000 6084500.000000 524.000000
612913.375000 6084500.000000 536.000000
612913.375000 6084500.000000 544.000000
612913.375000 6084500.000000 552.000000
612913.875000 6084483.000000 560.000000
612913.875000 6084483.000000 568.000000
612913.875000 6084483.000000 576.000000
612913.875000 6084483.000000 588.000000
612913.875000 6084483.000000 596.000000
612913.875000 6084483.000000 604.000000
612914.312500 6084466.000000 612.000000
612914.312500 6084466.000000 620.000000
612914.312500 6084466.000000 628.000000
612914.312500 6084466.000000 640.000000
612914.312500 6084466.000000 648.000000
612914.312500 6084466.000000 656.000000
612914.812500 6084449.000000 664.000000
612914.812500 6084449.000000 672.000000
612914.812500 6084449.000000 680.000000
612914.812500 6084449.000000 692.000000
612914.812500 6084449.000000 700.000000
612914.812500 6084449.000000 708.000000
612914.812500 6084449.000000 716.000000
612915.312500 6084431.500000 724.000000
612915.312500 6084431.500000 732.000000
612915.312500 6084431.500000 740.000000
612915.312500 6084431.500000 744.000000
612915.312500 6084431.500000 748.000000
612915.312500 6084431.500000 752.000000
612915.750000 6084414.500000 756.000000
612915.750000 6084414.500000 760.000000
612915.750000 6084414.500000 760.000000
612915.750000 6084414.500000 764.000000
612915.750000 6084414.500000 768.000000
612915.750000 6084414.500000 772.000000
612916.250000 6084397.500000 776.000000
612916.250000 6084397.500000 780.000000
612916.250000 6084397.500000 784.000000
612916.250000 6084397.500000 788.000000
612916.250000 6084397.500000 792.000000
612916.250000 6084397.500000 792.000000
612916.687500 6084380.500000 796.000000
612916.687500 6084380.500000 800.000000
612916.687500 6084380.500000 804.000000
612916.687500 6084380.500000 808.000000
612916.687500 6084380.500000 812.000000
612916.687500 6084380.500000 816.000000
612917.187500 6084363.500000 820.000000
612917.187500 6084363.500000 820.000000
612917.187500 6084363.500000 824.000000
612917.187500 6084363.500000 828.000000
612917.187500 6084363.500000 832.000000
612917.187500 6084363.500000 836.000000
612917.187500 6084363.500000 840.000000
612917.687500 6084346.000000 844.000000
612917.687500 6084346.000000 848.000000
612917.687500 6084346.000000 852.000000
612917.687500 6084346.000000 852.000000
612917.687500 6084346.000000 856.000000
612917.687500 6084346.000000 860.000000
612918.125000 6084329.000000 864.000000
612918.125000 6084329.000000 868.000000
612918.125000 6084329.000000 872.000000
612918.125000 6084329.000000 876.000000
612918.125000 6084329.000000 880.000000
612918.125000 6084329.000000 884.000000
612918.625000 6084312.000000 884.000000
612918.625000 6084312.000000 888.000000
612918.625000 6084312.000000 892.000000
612918.625000 6084312.000000 896.000000
612918.625000 6084312.000000 900.000000
612918.625000 6084312.000000 904.000000
612919.125000 6084295.000000 908.000000
612919.125000 6084295.000000 912.000000
612919.125000 6084295.000000 912.000000
612919.125000 6084295.000000 916.000000
612919.125000 6084295.000000 920.000000
612919.125000 6084295.000000 924.000000
612919.125000 6084295.000000 928.000000
612919.562500 6084278.000000 932.000000
612919.562500 6084278.000000 936.000000
612919.562500 6084278.000000 940.000000
612919.562500 6084278.000000 944.000000
612919.562500 6084278.000000 944.000000
612919.562500 6084278.000000 948.000000
612920.062500 6084260.500000 952.000000
612920.062500 6084260.500000 956.000000
612920.062500 6084260.500000 960.000000
612920.062500 6084260.500000 964.000000
612920.062500 6084260.500000 964.000000
612920.062500 6084260.500000 968.000000
612920.562500 6084243.500000 972.000000
612920.562500 6084243.500000 976.000000
612920.562500 6084243.500000 980.000000
612920.562500 6084243.500000 984.000000
612920.562500 6084243.500000 984.000000
612920.562500 6084243.500000 988.000000
612921.000000 6084226.500000 992.000000
612921.000000 6084226.500000 996.000000
612921.000000 6084226.500000 1000.000000
612921.000000 6084226.500000 1000.000000
612921.000000 6084226.500000 1004.000000
612921.000000 6084226.500000 1008.000000
612921.500000 6084209.500000 1012.000000
612921.500000 6084209.500000 1016.000000
612921.500000 6084209.500000 1020.000000
612921.500000 6084209.500000 1020.000000
612921.500000 6084209.500000 1024.000000
612921.500000 6084209.500000 1028.000000
612921.500000 6084209.500000 1032.000000
612922.000000 6084192.500000 1036.000000
612922.000000 6084192.500000 1040.000000
612922.000000 6084192.500000 1040.000000
612922.000000 6084192.500000 1044.000000
612922.000000 6084192.500000 1048.000000
612922.000000 6084192.500000 1052.000000
612922.437500 6084175.500000 1056.000000
612922.437500 6084175.500000 1056.000000
612922.437500 6084175.500000 1060.000000
612922.437500 6084175.500000 1064.000000
612922.437500 6084175.500000 1068.000000
612922.437500 6084175.500000 1072.000000
612922.937500 6084158.000000 1076.000000
612922.937500 6084158.000000 1076.000000
612922.937500 6084158.000000 1080.000000
612724.000000 6078198.000000 1620.000000
612724.000000 6078198.000000 1624.000000
612723.500000 6078215.000000 1628.000000
612723.500000 6078215.000000 1632.000000
612723.500000 6078215.000000 1636.000000
612723.500000 6078215.000000 1640.000000
612723.500000 6078215.000000 1644.000000
612723.500000 6078215.000000 1648.000000
612723.000000 6078232.000000 1652.000000
612723.000000 6078232.000000 1656.000000
612723.000000 6078232.000000 1660.000000
612723.000000 6078232.000000 1664.000000
612723.000000 6078232.000000 1668.000000
612723.000000 6078232.000000 1672.000000
612722.562500 6078249.000000 1676.000000
612722.562500 6078249.000000 1680.000000
612722.562500 6078249.000000 1684.000000
612722.562500 6078249.000000 1688.000000
612722.562500 6078249.000000 1692.000000
612722.562500 6078249.000000 1696.000000
612722.562500 6078249.000000 1700.000000
612722.062500 6078266.500000 1704.000000
612722.062500 6078266.500000 1708.000000
612722.062500 6078266.500000 1712.000000
612722.062500 6078266.500000 1716.000000
612722.062500 6078266.500000 1720.000000
612722.062500 6078266.500000 1724.000000
612721.562500 6078283.500000 1724.000000
612721.562500 6078283.500000 1728.000000
612721.562500 6078283.500000 1732.000000
612721.562500 6078283.500000 1736.000000
612721.562500 6078283.500000 1736.000000
612721.562500 6078283.500000 1740.000000
612721.125000 6078300.500000 1744.000000
612721.125000 6078300.500000 1748.000000
612721.125000 6078300.500000 1748.000000
612721.125000 6078300.500000 1752.000000
612721.125000 6078300.500000 1756.000000
612721.125000 6078300.500000 1760.000000
612720.625000 6078317.500000 1760.000000
612720.625000 6078317.500000 1764.000000
612720.625000 6078317.500000 1768.000000
612732.125000 6077907.000000 1608.000000
612732.125000 6077907.000000 1612.000000
612731.625000 6077924.500000 1616.000000
612731.625000 6077924.500000 1624.000000
612731.625000 6077924.500000 1628.000000
612731.625000 6077924.500000 1632.000000
612731.625000 6077924.500000 1640.000000
612731.625000 6077924.500000 1644.000000
612731.125000 6077941.500000 1648.000000
612731.125000 6077941.500000 1652.000000
612731.125000 6077941.500000 1660.000000
612731.125000 6077941.500000 1664.000000
612731.125000 6077941.500000 1668.000000
612731.125000 6077941.500000 1676.000000
612730.687500 6077958.500000 1680.000000
612730.687500 6077958.500000 1684.000000
612730.687500 6077958.500000 1692.000000
612730.687500 6077958.500000 1696.000000
629156.500000 6089249.000000 292.000000
629156.500000 6089249.000000 300.000000
629156.937500 6089232.000000 308.000000
629156.937500 6089232.000000 316.000000
629156.937500 6089232.000000 324.000000
629156.937500 6089232.000000 332.000000
629156.937500 6089232.000000 340.000000
629156.937500 6089232.000000 348.000000
629156.937500 6089232.000000 356.000000
629157.437500 6089215.000000 364.000000
629157.437500 6089215.000000 376.000000
629157.437500 6089215.000000 384.000000
629157.437500 6089215.000000 392.000000
629157.437500 6089215.000000 400.000000
629157.437500 6089215.000000 408.000000
629157.875000 6089197.500000 416.000000
629157.875000 6089197.500000 424.000000
629157.875000 6089197.500000 432.000000
629157.875000 6089197.500000 440.000000
629157.875000 6089197.500000 448.000000
629157.875000 6089197.500000 460.000000
629158.375000 6089180.500000 468.000000
629158.375000 6089180.500000 476.000000
629158.375000 6089180.500000 484.000000
629158.375000 6089180.500000 492.000000
629158.375000 6089180.500000 500.000000
629158.375000 6089180.500000 508.000000
629158.875000 6089163.500000 516.000000
629158.875000 6089163.500000 524.000000
629158.875000 6089163.500000 528.000000
629158.875000 6089163.500000 536.000000
629158.875000 6089163.500000 544.000000
629158.875000 6089163.500000 548.000000
629159.312500 6089146.500000 556.000000
629159.312500 6089146.500000 564.000000
629159.312500 6089146.500000 568.000000
629159.312500 6089146.500000 576.000000
629159.312500 6089146.500000 584.000000
629159.312500 6089146.500000 588.000000
629159.312500 6089146.500000 596.000000
629159.812500 6089129.500000 604.000000
629159.812500 6089129.500000 608.000000
629159.812500 6089129.500000 616.000000
629159.812500 6089129.500000 624.000000
629159.812500 6089129.500000 628.000000
629159.812500 6089129.500000 636.000000
629160.312500 6089112.000000 644.000000
629160.312500 6089112.000000 648.000000
629160.312500 6089112.000000 656.000000
629160.312500 6089112.000000 664.000000
629160.312500 6089112.000000 668.000000
629160.312500 6089112.000000 676.000000
629160.750000 6089095.000000 684.000000
629160.750000 6089095.000000 688.000000
629160.750000 6089095.000000 696.000000
629160.750000 6089095.000000 704.000000
629160.750000 6089095.000000 708.000000
629160.750000 6089095.000000 716.000000
629161.250000 6089078.000000 724.000000
629161.250000 6089078.000000 728.000000
629161.250000 6089078.000000 736.000000
629161.250000 6089078.000000 744.000000
629161.250000 6089078.000000 748.000000
629161.250000 6089078.000000 756.000000
629161.750000 6089061.000000 764.000000
629161.750000 6089061.000000 768.000000
629161.750000 6089061.000000 776.000000
629161.750000 6089061.000000 784.000000
629161.750000 6089061.000000 788.000000
629161.750000 6089061.000000 796.000000
629161.750000 6089061.000000 800.000000
629162.187500 6089044.000000 808.000000
629162.187500 6089044.000000 816.000000
629162.187500 6089044.000000 820.000000
629162.187500 6089044.000000 828.000000
629162.187500 6089044.000000 836.000000
629162.187500 6089044.000000 840.000000
629162.687500 6089026.500000 848.000000
629162.687500 6089026.500000 856.000000
629162.687500 6089026.500000 860.000000
629162.687500 6089026.500000 868.000000
629162.687500 6089026.500000 876.000000
629162.687500 6089026.500000 880.000000
629163.187500 6089009.500000 888.000000
629163.187500 6089009.500000 896.000000
629163.187500 6089009.500000 900.000000
629163.187500 6089009.500000 908.000000
629163.187500 6089009.500000 916.000000
629163.187500 6089009.500000 920.000000
629163.625000 6088992.500000 928.000000
629163.625000 6088992.500000 936.000000
629163.625000 6088992.500000 940.000000
629163.625000 6088992.500000 948.000000
629163.625000 6088992.500000 956.000000
629163.625000 6088992.500000 960.000000
629164.125000 6088975.500000 968.000000
629164.125000 6088975.500000 976.000000
629164.125000 6088975.500000 980.000000
629164.125000 6088975.500000 988.000000
629164.125000 6088975.500000 996.000000
629164.125000 6088975.500000 1000.000000
629140.250000 6089830.500000 384.000000
629140.250000 6089830.500000 392.000000
629140.687500 6089813.000000 404.000000
629140.687500 6089813.000000 412.000000
629140.687500 6089813.000000 424.000000
629140.687500 6089813.000000 432.000000
629140.687500 6089813.000000 444.000000
629140.687500 6089813.000000 452.000000
629141.187500 6089796.000000 464.000000
629141.187500 6089796.000000 472.000000
629141.187500 6089796.000000 484.000000
629141.187500 6089796.000000 492.000000
629141.187500 6089796.000000 504.000000
629141.187500 6089796.000000 516.000000
629141.687500 6089779.000000 524.000000
629141.687500 6089779.000000 536.000000
629141.687500 6089779.000000 544.000000
629141.687500 6089779.000000 556.000000
629141.687500 6089779.000000 564.000000
629141.687500 6089779.000000 576.000000
629142.125000 6089762.000000 584.000000
629142.125000 6089762.000000 596.000000
629142.125000 6089762.000000 604.000000
629142.125000 6089762.000000 616.000000
629142.125000 6089762.000000 624.000000
629142.125000 6089762.000000 636.000000
629142.625000 6089745.000000 644.000000
629142.625000 6089745.000000 652.000000
629142.625000 6089745.000000 664.000000
629142.625000 6089745.000000 672.000000
629142.625000 6089745.000000 680.000000
629142.625000 6089745.000000 692.000000
629142.625000 6089745.000000 700.000000
629143.062500 6089727.500000 708.000000
629143.062500 6089727.500000 716.000000
629143.062500 6089727.500000 728.000000
629143.062500 6089727.500000 736.000000
629143.062500 6089727.500000 744.000000
629143.062500 6089727.500000 752.000000
629143.562500 6089710.500000 764.000000
629143.562500 6089710.500000 772.000000
629143.562500 6089710.500000 780.000000
627707.437500 6088780.500000 360.000000
627707.437500 6088780.500000 368.000000
627706.937500 6088798.000000 380.000000
627706.937500 6088798.000000 388.000000
627706.937500 6088798.000000 396.000000
627706.937500 6088798.000000 404.000000
627706.937500 6088798.000000 416.000000
627706.937500 6088798.000000 424.000000
627706.937500 6088798.000000 432.000000
627706.500000 6088815.000000 440.000000
627706.500000 6088815.000000 448.000000
627706.500000 6088815.000000 460.000000
627706.500000 6088815.000000 468.000000
627706.500000 6088815.000000 476.000000
627706.500000 6088815.000000 484.000000
627706.000000 6088832.000000 496.000000
627706.000000 6088832.000000 504.000000
627706.000000 6088832.000000 512.000000
627706.000000 6088832.000000 520.000000
627706.000000 6088832.000000 532.000000
627706.000000 6088832.000000 540.000000
627705.500000 6088849.000000 548.000000
627705.500000 6088849.000000 556.000000
627705.500000 6088849.000000 568.000000
627705.500000 6088849.000000 576.000000
627705.500000 6088849.000000 584.000000
627705.500000 6088849.000000 592.000000
627705.062500 6088866.000000 604.000000
627705.062500 6088866.000000 612.000000
627705.062500 6088866.000000 616.000000
627705.062500 6088866.000000 620.000000
627705.062500 6088866.000000 624.000000
627705.062500 6088866.000000 628.000000
627704.562500 6088883.500000 632.000000
627704.562500 6088883.500000 636.000000
627704.562500 6088883.500000 640.000000
627704.562500 6088883.500000 644.000000
627704.562500 6088883.500000 648.000000
627704.562500 6088883.500000 652.000000
627704.062500 6088900.500000 660.000000
627704.062500 6088900.500000 664.000000
627704.062500 6088900.500000 668.000000
627704.062500 6088900.500000 672.000000
627704.062500 6088900.500000 676.000000
627704.062500 6088900.500000 680.000000
627704.062500 6088900.500000 684.000000
627703.625000 6088917.500000 688.000000
627703.625000 6088917.500000 692.000000
627703.625000 6088917.500000 696.000000
627703.625000 6088917.500000 700.000000
627703.625000 6088917.500000 704.000000
627703.625000 6088917.500000 708.000000
627703.125000 6088934.500000 712.000000
627703.125000 6088934.500000 716.000000
627703.125000 6088934.500000 720.000000
627703.125000 6088934.500000 724.000000
627703.125000 6088934.500000 732.000000
627703.125000 6088934.500000 736.000000
627702.625000 6088951.500000 740.000000
627702.625000 6088951.500000 744.000000
627702.625000 6088951.500000 748.000000
627702.625000 6088951.500000 752.000000
627702.625000 6088951.500000 756.000000
627702.625000 6088951.500000 760.000000
627702.187500 6088969.000000 764.000000
627702.187500 6088969.000000 768.000000
627702.187500 6088969.000000 772.000000
627702.187500 6088969.000000 776.000000
627702.187500 6088969.000000 780.000000
627702.187500 6088969.000000 784.000000
627701.687500 6088986.000000 788.000000
627695.937500 6089191.000000 812.000000
627695.937500 6089191.000000 792.000000
627695.937500 6089191.000000 772.000000
627695.937500 6089191.000000 752.000000
627695.500000 6089208.000000 732.000000
627695.500000 6089208.000000 712.000000
627695.500000 6089208.000000 692.000000
627695.500000 6089208.000000 676.000000
627695.500000 6089208.000000 656.000000
627695.500000 6089208.000000 636.000000
627695.000000 6089225.500000 616.000000
627695.000000 6089225.500000 596.000000
627695.000000 6089225.500000 576.000000
627695.000000 6089225.500000 564.000000
627695.000000 6089225.500000 560.000000
627695.000000 6089225.500000 556.000000
627695.000000 6089225.500000 552.000000
627694.500000 6089242.500000 548.000000
627694.500000 6089242.500000 540.000000
627694.500000 6089242.500000 536.000000
627694.500000 6089242.500000 532.000000
627694.500000 6089242.500000 528.000000
627694.500000 6089242.500000 524.000000
627694.062500 6089259.500000 520.000000
627694.062500 6089259.500000 516.000000
627694.062500 6089259.500000 512.000000
627694.062500 6089259.500000 504.000000
627694.062500 6089259.500000 500.000000
627694.062500 6089259.500000 496.000000
627693.562500 6089276.500000 492.000000
627693.562500 6089276.500000 488.000000
627693.562500 6089276.500000 484.000000
627693.562500 6089276.500000 480.000000
627693.562500 6089276.500000 476.000000
627693.562500 6089276.500000 468.000000
627693.125000 6089293.500000 464.000000
627693.125000 6089293.500000 460.000000
627693.125000 6089293.500000 456.000000
627693.125000 6089293.500000 452.000000
627693.125000 6089293.500000 448.000000
624780.687500 6088870.000000 372.000000
624780.187500 6088887.000000 376.000000
624780.187500 6088887.000000 384.000000
624780.187500 6088887.000000 388.000000
624780.187500 6088887.000000 396.000000
624780.187500 6088887.000000 400.000000
624780.187500 6088887.000000 408.000000
624779.750000 6088904.000000 412.000000
624779.750000 6088904.000000 420.000000
624779.750000 6088904.000000 424.000000
624779.750000 6088904.000000 432.000000
624779.750000 6088904.000000 436.000000
624779.750000 6088904.000000 444.000000
624779.250000 6088921.500000 452.000000
624779.250000 6088921.500000 456.000000
624779.250000 6088921.500000 464.000000
624779.250000 6088921.500000 468.000000
624779.250000 6088921.500000 476.000000
624779.250000 6088921.500000 480.000000
624779.250000 6088921.500000 488.000000
624778.750000 6088938.500000 492.000000
624778.750000 6088938.500000 500.000000
624778.750000 6088938.500000 504.000000
624778.750000 6088938.500000 512.000000
624778.750000 6088938.500000 516.000000
624778.750000 6088938.500000 524.000000
624778.312500 6088955.500000 528.000000
624778.312500 6088955.500000 536.000000
624778.312500 6088955.500000 540.000000
624778.312500 6088955.500000 548.000000
624778.312500 6088955.500000 552.000000
624778.312500 6088955.500000 560.000000
624777.812500 6088972.500000 564.000000
624777.812500 6088972.500000 568.000000
624777.812500 6088972.500000 576.000000
624777.812500 6088972.500000 580.000000
624777.812500 6088972.500000 584.000000
624777.812500 6088972.500000 592.000000
624777.312500 6088989.500000 596.000000
624777.312500 6088989.500000 600.000000
624777.312500 6088989.500000 608.000000
624777.312500 6088989.500000 612.000000
624777.312500 6088989.500000 620.000000
624777.312500 6088989.500000 624.000000
624777.312500 6088989.500000 628.000000
624776.875000 6089007.000000 636.000000
624776.875000 6089007.000000 640.000000
624776.875000 6089007.000000 644.000000
624776.875000 6089007.000000 652.000000
624776.875000 6089007.000000 656.000000
624776.875000 6089007.000000 660.000000
624776.375000 6089024.000000 668.000000
624776.375000 6089024.000000 672.000000
624776.375000 6089024.000000 676.000000
624776.375000 6089024.000000 684.000000
624776.375000 6089024.000000 688.000000
624776.375000 6089024.000000 692.000000
624775.875000 6089041.000000 700.000000
624775.875000 6089041.000000 704.000000
624775.875000 6089041.000000 708.000000
624775.875000 6089041.000000 716.000000
624775.875000 6089041.000000 720.000000
624775.875000 6089041.000000 724.000000
624775.437500 6089058.000000 732.000000
624775.437500 6089058.000000 736.000000
624775.437500 6089058.000000 744.000000
624775.437500 6089058.000000 748.000000
624775.437500 6089058.000000 752.000000
624775.437500 6089058.000000 760.000000
624775.437500 6089058.000000 764.000000
624774.937500 6089075.000000 768.000000
624774.937500 6089075.000000 776.000000
624774.937500 6089075.000000 780.000000
624774.937500 6089075.000000 784.000000
624774.937500 6089075.000000 792.000000
624774.937500 6089075.000000 796.000000
624774.500000 6089092.500000 800.000000
624774.500000 6089092.500000 808.000000
624774.500000 6089092.500000 812.000000
624774.500000 6089092.500000 816.000000
624774.500000 6089092.500000 824.000000
624774.500000 6089092.500000 828.000000
624774.000000 6089109.500000 832.000000
624774.000000 6089109.500000 840.000000
624774.000000 6089109.500000 844.000000
624774.000000 6089109.500000 848.000000
624774.000000 6089109.500000 848.000000
624774.000000 6089109.500000 852.000000
624773.500000 6089126.500000 856.000000
624773.500000 6089126.500000 860.000000
624773.500000 6089126.500000 864.000000
624773.500000 6089126.500000 864.000000
624773.500000 6089126.500000 868.000000
624773.500000 6089126.500000 872.000000
624773.500000 6089126.500000 876.000000
624773.062500 6089143.500000 880.000000
624773.062500 6089143.500000 880.000000
624773.062500 6089143.500000 884.000000
624773.062500 6089143.500000 888.000000
624773.062500 6089143.500000 892.000000
624773.062500 6089143.500000 896.000000
624772.562500 6089160.500000 900.000000
624772.562500 6089160.500000 900.000000
624772.562500 6089160.500000 904.000000
624772.562500 6089160.500000 908.000000
624772.562500 6089160.500000 912.000000
624772.562500 6089160.500000 916.000000
624772.062500 6089178.000000 916.000000
624772.062500 6089178.000000 920.000000
624772.062500 6089178.000000 924.000000
624772.062500 6089178.000000 928.000000
624772.062500 6089178.000000 932.000000
624772.062500 6089178.000000 932.000000
624771.625000 6089195.000000 936.000000
624771.625000 6089195.000000 940.000000
624771.625000 6089195.000000 944.000000
624771.625000 6089195.000000 948.000000
624771.625000 6089195.000000 952.000000
624771.625000 6089195.000000 952.000000
624771.625000 6089195.000000 956.000000
624771.125000 6089212.000000 960.000000
624771.125000 6089212.000000 964.000000
624769.687500 6089263.500000 864.000000
624769.687500 6089263.500000 856.000000
624769.187500 6089280.500000 852.000000
624769.187500 6089280.500000 848.000000
624769.187500 6089280.500000 844.000000
624769.187500 6089280.500000 840.000000
624769.187500 6089280.500000 836.000000
624769.187500 6089280.500000 832.000000
624768.750000 6089297.500000 828.000000
624768.750000 6089297.500000 820.000000
624768.750000 6089297.500000 816.000000
624768.750000 6089297.500000 812.000000
624768.750000 6089297.500000 808.000000
624768.750000 6089297.500000 804.000000
624768.250000 6089314.500000 800.000000
624768.250000 6089314.500000 796.000000
624768.250000 6089314.500000 788.000000
624768.250000 6089314.500000 784.000000
624768.250000 6089314.500000 780.000000
624768.250000 6089314.500000 776.000000
624767.750000 6089331.500000 772.000000
624767.750000 6089331.500000 768.000000
624767.750000 6089331.500000 764.000000
624767.750000 6089331.500000 756.000000
624767.750000 6089331.500000 752.000000
624767.750000 6089331.500000 748.000000
624767.750000 6089331.500000 744.000000
624767.312500 6089349.000000 740.000000
624767.312500 6089349.000000 736.000000
624767.312500 6089349.000000 732.000000
624767.312500 6089349.000000 724.000000
624767.312500 6089349.000000 720.000000
624767.312500 6089349.000000 716.000000
624766.812500 6089366.000000 712.000000
624766.812500 6089366.000000 708.000000
624766.812500 6089366.000000 704.000000
624766.812500 6089366.000000 700.000000
624766.812500 6089366.000000 692.000000
624766.812500 6089366.000000 688.000000
624766.375000 6089383.000000 684.000000
624766.375000 6089383.000000 680.000000
624766.375000 6089383.000000 676.000000
624766.375000 6089383.000000 672.000000
624766.375000 6089383.000000 664.000000
624766.375000 6089383.000000 656.000000
624765.875000 6089400.000000 652.000000
624765.875000 6089400.000000 644.000000
624765.875000 6089400.000000 636.000000
624765.875000 6089400.000000 632.000000
624765.875000 6089400.000000 624.000000
624765.875000 6089400.000000 616.000000
624765.375000 6089417.000000 612.000000
624765.375000 6089417.000000 604.000000
624765.375000 6089417.000000 596.000000
624765.375000 6089417.000000 592.000000
624765.375000 6089417.000000 584.000000
624765.375000 6089417.000000 576.000000
624765.375000 6089417.000000 572.000000
624764.937500 6089434.500000 564.000000
624764.937500 6089434.500000 556.000000
624764.937500 6089434.500000 552.000000
624764.937500 6089434.500000 544.000000
624764.937500 6089434.500000 536.000000
624764.937500 6089434.500000 528.000000
624764.437500 6089451.500000 524.000000
624764.437500 6089451.500000 516.000000
624764.437500 6089451.500000 508.000000
624764.437500 6089451.500000 504.000000
624764.437500 6089451.500000 496.000000
624764.437500 6089451.500000 488.000000
624763.937500 6089468.500000 484.000000
624758.250000 6089673.500000 844.000000
624758.250000 6089673.500000 836.000000
624758.250000 6089673.500000 832.000000
624758.250000 6089673.500000 824.000000
624758.250000 6089673.500000 820.000000
624758.250000 6089673.500000 812.000000
624757.750000 6089690.500000 804.000000
624757.750000 6089690.500000 800.000000
624757.750000 6089690.500000 792.000000
624757.750000 6089690.500000 788.000000
624757.750000 6089690.500000 780.000000
624757.750000 6089690.500000 772.000000
624757.250000 6089708.000000 768.000000
624757.250000 6089708.000000 760.000000
624757.250000 6089708.000000 752.000000
624757.250000 6089708.000000 748.000000
624757.250000 6089708.000000 740.000000
624757.250000 6089708.000000 736.000000
624756.812500 6089725.000000 728.000000
624756.812500 6089725.000000 720.000000
624756.812500 6089725.000000 716.000000
624756.812500 6089725.000000 708.000000
624756.812500 6089725.000000 700.000000
624756.812500 6089725.000000 696.000000
624756.312500 6089742.000000 688.000000
624756.312500 6089742.000000 684.000000
624756.312500 6089742.000000 676.000000
624756.312500 6089742.000000 668.000000
624756.312500 6089742.000000 664.000000
624756.312500 6089742.000000 656.000000
624756.312500 6089742.000000 652.000000
624755.812500 6089759.000000 644.000000
624755.812500 6089759.000000 636.000000
624755.812500 6089759.000000 632.000000
624755.812500 6089759.000000 624.000000
624755.812500 6089759.000000 620.000000
624755.812500 6089759.000000 612.000000
624755.375000 6089776.000000 604.000000
624755.375000 6089776.000000 600.000000
624755.375000 6089776.000000 592.000000
624755.375000 6089776.000000 584.000000
624755.375000 6089776.000000 580.000000
624755.375000 6089776.000000 572.000000
624754.875000 6089793.500000 568.000000
624754.875000 6089793.500000 560.000000
624754.875000 6089793.500000 552.000000
624754.875000 6089793.500000 548.000000
624754.875000 6089793.500000 540.000000
624754.875000 6089793.500000 536.000000
624754.375000 6089810.500000 528.000000
624754.375000 6089810.500000 520.000000
624754.375000 6089810.500000 516.000000
624754.375000 6089810.500000 508.000000
624754.375000 6089810.500000 504.000000
624754.375000 6089810.500000 496.000000
624753.937500 6089827.500000 492.000000
624753.937500 6089827.500000 484.000000
624753.937500 6089827.500000 480.000000
624753.937500 6089827.500000 476.000000
624753.937500 6089827.500000 472.000000
624753.937500 6089827.500000 464.000000
624753.937500 6089827.500000 460.000000
624753.437500 6089844.500000 456.000000
624753.437500 6089844.500000 448.000000
624753.437500 6089844.500000 444.000000
624753.437500 6089844.500000 440.000000
624753.437500 6089844.500000 436.000000
624753.437500 6089844.500000 428.000000
624752.937500 6089861.500000 424.000000
624752.937500 6089861.500000 420.000000
624752.937500 6089861.500000 412.000000
624752.937500 6089861.500000 408.000000
624752.937500 6089861.500000 404.000000
624752.937500 6089861.500000 396.000000
624752.500000 6089879.000000 392.000000
624752.500000 6089879.000000 388.000000
624752.500000 6089879.000000 384.000000
624752.500000 6089879.000000 376.000000
624752.500000 6089879.000000 372.000000
624752.500000 6089879.000000 368.000000
624752.000000 6089896.000000 360.000000
624752.000000 6089896.000000 356.000000
624744.875000 6090152.500000 348.000000
624744.875000 6090152.500000 352.000000
624744.875000 6090152.500000 360.000000
624745.312500 6090135.500000 364.000000
624745.312500 6090135.500000 372.000000
624745.312500 6090135.500000 376.000000
624745.312500 6090135.500000 384.000000
624745.312500 6090135.500000 388.000000
624745.312500 6090135.500000 392.000000
624745.812500 6090118.000000 400.000000
624745.812500 6090118.000000 404.000000
624745.812500 6090118.000000 412.000000
624745.812500 6090118.000000 416.000000
624745.812500 6090118.000000 424.000000
624745.812500 6090118.000000 428.000000
624745.812500 6090118.000000 436.000000
624746.250000 6090101.000000 440.000000
624746.250000 6090101.000000 444.000000
624746.250000 6090101.000000 452.000000
624746.250000 6090101.000000 456.000000
624746.250000 6090101.000000 464.000000
624746.250000 6090101.000000 468.000000
624746.750000 6090084.000000 476.000000
624746.750000 6090084.000000 480.000000
624746.750000 6090084.000000 488.000000
624746.750000 6090084.000000 492.000000
624746.750000 6090084.000000 496.000000
624746.750000 6090084.000000 504.000000
624747.250000 6090067.000000 508.000000
624747.250000 6090067.000000 516.000000
624747.250000 6090067.000000 520.000000
624747.250000 6090067.000000 528.000000
624747.250000 6090067.000000 532.000000
624747.250000 6090067.000000 540.000000
624747.687500 6090050.000000 544.000000
624747.687500 6090050.000000 548.000000
624747.687500 6090050.000000 556.000000
624747.687500 6090050.000000 560.000000
624747.687500 6090050.000000 568.000000
624747.687500 6090050.000000 572.000000
624747.687500 6090050.000000 580.000000
624748.187500 6090032.500000 584.000000
624748.187500 6090032.500000 592.000000
624748.187500 6090032.500000 596.000000
624748.187500 6090032.500000 600.000000
624748.187500 6090032.500000 608.000000
624748.187500 6090032.500000 612.000000
624748.687500 6090015.500000 620.000000
624748.687500 6090015.500000 624.000000
624748.687500 6090015.500000 628.000000
624748.687500 6090015.500000 632.000000
624748.687500 6090015.500000 636.000000
624748.687500 6090015.500000 640.000000
624749.125000 6089998.500000 648.000000
624749.125000 6089998.500000 652.000000
624749.125000 6089998.500000 656.000000
624749.125000 6089998.500000 660.000000
624749.125000 6089998.500000 664.000000
624749.125000 6089998.500000 668.000000
624749.625000 6089981.500000 672.000000
624749.625000 6089981.500000 680.000000
624749.625000 6089981.500000 684.000000
624749.625000 6089981.500000 688.000000
624749.625000 6089981.500000 692.000000
624749.625000 6089981.500000 696.000000
624750.125000 6089964.500000 700.000000
624750.125000 6089964.500000 708.000000
624750.125000 6089964.500000 712.000000
624750.125000 6089964.500000 716.000000
624750.125000 6089964.500000 720.000000
624750.125000 6089964.500000 724.000000
624750.125000 6089964.500000 728.000000
624750.562500 6089947.000000 736.000000
624750.562500 6089947.000000 740.000000
624750.562500 6089947.000000 744.000000
624750.562500 6089947.000000 748.000000
624750.562500 6089947.000000 752.000000
624750.562500 6089947.000000 756.000000
624751.062500 6089930.000000 764.000000
624751.062500 6089930.000000 768.000000
624751.062500 6089930.000000 772.000000
624751.062500 6089930.000000 776.000000
624751.062500 6089930.000000 780.000000
624751.062500 6089930.000000 784.000000
624751.562500 6089913.000000 792.000000
624751.562500 6089913.000000 796.000000
624751.562500 6089913.000000 800.000000
624751.562500 6089913.000000 800.000000
624751.562500 6089913.000000 804.000000
624751.562500 6089913.000000 808.000000
624752.000000 6089896.000000 812.000000
624752.000000 6089896.000000 816.000000
624752.000000 6089896.000000 820.000000
624752.000000 6089896.000000 824.000000
624752.000000 6089896.000000 828.000000
624752.000000 6089896.000000 832.000000
624752.500000 6089879.000000 836.000000
624752.500000 6089879.000000 840.000000
624752.500000 6089879.000000 844.000000
624752.500000 6089879.000000 848.000000
624752.500000 6089879.000000 852.000000
624752.500000 6089879.000000 856.000000
624752.500000 6089879.000000 856.000000
624752.937500 6089861.500000 860.000000
624752.937500 6089861.500000 864.000000
624752.937500 6089861.500000 868.000000
624752.937500 6089861.500000 872.000000
624752.937500 6089861.500000 876.000000
624752.937500 6089861.500000 880.000000
624051.625000 6088798.500000 368.000000
624051.625000 6088798.500000 372.000000
624051.625000 6088798.500000 376.000000
624051.625000 6088798.500000 384.000000
624051.625000 6088798.500000 388.000000
624051.625000 6088798.500000 396.000000
624051.125000 6088815.500000 400.000000
624051.125000 6088815.500000 408.000000
624051.125000 6088815.500000 412.000000
624051.125000 6088815.500000 420.000000
624051.125000 6088815.500000 424.000000
624051.125000 6088815.500000 432.000000
624051.125000 6088815.500000 436.000000
624050.687500 6088832.500000 444.000000
624050.687500 6088832.500000 448.000000
624050.687500 6088832.500000 452.000000
624050.687500 6088832.500000 460.000000
624050.687500 6088832.500000 464.000000
624050.687500 6088832.500000 472.000000
624050.187500 6088849.500000 476.000000
624050.187500 6088849.500000 484.000000
624050.187500 6088849.500000 488.000000
624050.187500 6088849.500000 496.000000
624050.187500 6088849.500000 500.000000
624050.187500 6088849.500000 508.000000
624049.687500 6088866.500000 512.000000
624049.687500 6088866.500000 520.000000
624049.687500 6088866.500000 524.000000
624049.687500 6088866.500000 528.000000
624049.687500 6088866.500000 536.000000
624049.687500 6088866.500000 540.000000
624049.250000 6088884.000000 548.000000
624049.250000 6088884.000000 552.000000
624049.250000 6088884.000000 560.000000
624049.250000 6088884.000000 564.000000
624049.250000 6088884.000000 572.000000
624049.250000 6088884.000000 576.000000
624048.750000 6088901.000000 584.000000
624048.750000 6088901.000000 588.000000
624048.750000 6088901.000000 592.000000
624048.750000 6088901.000000 600.000000
624048.750000 6088901.000000 604.000000
624048.750000 6088901.000000 612.000000
624048.750000 6088901.000000 616.000000
624048.250000 6088918.000000 624.000000
624048.250000 6088918.000000 628.000000
624048.250000 6088918.000000 636.000000
624048.250000 6088918.000000 640.000000
624048.250000 6088918.000000 648.000000
624048.250000 6088918.000000 652.000000
624047.812500 6088935.000000 660.000000
624047.812500 6088935.000000 664.000000
624047.812500 6088935.000000 668.000000
624047.812500 6088935.000000 676.000000
624047.812500 6088935.000000 680.000000
624047.812500 6088935.000000 688.000000
624047.312500 6088952.000000 692.000000
624047.312500 6088952.000000 700.000000
624047.312500 6088952.000000 704.000000
624047.312500 6088952.000000 712.000000
624047.312500 6088952.000000 716.000000
624047.312500 6088952.000000 724.000000
624046.875000 6088969.500000 728.000000
624046.875000 6088969.500000 736.000000
624046.875000 6088969.500000 740.000000
624046.875000 6088969.500000 744.000000
624046.875000 6088969.500000 752.000000
624046.875000 6088969.500000 756.000000
624046.375000 6088986.500000 764.000000
624046.375000 6088986.500000 768.000000
624046.375000 6088986.500000 776.000000
624046.375000 6088986.500000 780.000000
624046.375000 6088986.500000 788.000000
617414.437500 6077781.500000 1692.000000
617414.437500 6077781.500000 1696.000000
617414.437500 6077781.500000 1700.000000
617413.937500 6077798.500000 1700.000000
617413.937500 6077798.500000 1704.000000
617413.937500 6077798.500000 1708.000000
617413.937500 6077798.500000 1708.000000
617413.937500 6077798.500000 1712.000000
617413.937500 6077798.500000 1716.000000
617413.437500 6077815.500000 1720.000000
617413.437500 6077815.500000 1720.000000
617413.437500 6077815.500000 1724.000000
617413.437500 6077815.500000 1728.000000
617413.437500 6077815.500000 1728.000000
617413.437500 6077815.500000 1732.000000
617413.437500 6077815.500000 1736.000000
617413.000000 6077832.500000 1736.000000
617413.000000 6077832.500000 1740.000000
617413.000000 6077832.500000 1744.000000
617413.000000 6077832.500000 1748.000000
617413.000000 6077832.500000 1748.000000
617413.000000 6077832.500000 1752.000000
617412.500000 6077850.000000 1756.000000
617412.500000 6077850.000000 1756.000000
617412.500000 6077850.000000 1760.000000
617412.500000 6077850.000000 1764.000000
617412.500000 6077850.000000 1764.000000
617412.500000 6077850.000000 1768.000000
617412.000000 6077867.000000 1772.000000
617412.000000 6077867.000000 1776.000000
617412.000000 6077867.000000 1776.000000
617412.000000 6077867.000000 1780.000000
617412.000000 6077867.000000 1784.000000
617412.000000 6077867.000000 1784.000000
617411.562500 6077884.000000 1788.000000
617411.562500 6077884.000000 1792.000000
617411.562500 6077884.000000 1796.000000
617411.562500 6077884.000000 1796.000000
617411.562500 6077884.000000 1800.000000
617411.562500 6077884.000000 1804.000000
617411.062500 6077901.000000 1804.000000
617411.062500 6077901.000000 1808.000000
617411.062500 6077901.000000 1812.000000
617411.062500 6077901.000000 1812.000000
617411.062500 6077901.000000 1816.000000
617411.062500 6077901.000000 1820.000000
617410.625000 6077918.000000 1824.000000
617410.625000 6077918.000000 1824.000000
617424.937500 6077405.500000 1700.000000
617424.437500 6077422.500000 1700.000000
617424.437500 6077422.500000 1704.000000
617424.437500 6077422.500000 1704.000000
617424.437500 6077422.500000 1708.000000
617424.437500 6077422.500000 1708.000000
617424.437500 6077422.500000 1712.000000
617424.000000 6077439.500000 1712.000000
617424.000000 6077439.500000 1716.000000
617424.000000 6077439.500000 1716.000000
617424.000000 6077439.500000 1720.000000
617424.000000 6077439.500000 1720.000000
617424.000000 6077439.500000 1724.000000
617423.500000 6077456.500000 1724.000000
617423.500000 6077456.500000 1728.000000
617423.500000 6077456.500000 1728.000000
617423.500000 6077456.500000 1728.000000
617423.500000 6077456.500000 1732.000000
617423.500000 6077456.500000 1732.000000
617423.000000 6077473.500000 1736.000000
617423.000000 6077473.500000 1736.000000
617423.000000 6077473.500000 1740.000000
617423.000000 6077473.500000 1740.000000
617423.000000 6077473.500000 1744.000000
617423.000000 6077473.500000 1744.000000
617422.562500 6077490.500000 1748.000000
617422.562500 6077490.500000 1748.000000
617422.562500 6077490.500000 1752.000000
617422.562500 6077490.500000 1752.000000
617422.562500 6077490.500000 1756.000000
617422.562500 6077490.500000 1756.000000
617422.562500 6077490.500000 1760.000000
617422.062500 6077508.000000 1760.000000
617422.062500 6077508.000000 1764.000000
617422.062500 6077508.000000 1764.000000
617422.062500 6077508.000000 1768.000000
617422.062500 6077508.000000 1768.000000
617422.062500 6077508.000000 1772.000000
617421.562500 6077525.000000 1772.000000
617421.562500 6077525.000000 1772.000000
617421.562500 6077525.000000 1776.000000
617421.562500 6077525.000000 1776.000000
617421.562500 6077525.000000 1780.000000
617421.562500 6077525.000000 1780.000000
617421.125000 6077542.000000 1784.000000
617421.125000 6077542.000000 1784.000000
617421.125000 6077542.000000 1788.000000
617421.125000 6077542.000000 1788.000000
617421.125000 6077542.000000 1792.000000
617421.125000 6077542.000000 1792.000000
617420.625000 6077559.000000 1796.000000
617420.625000 6077559.000000 1796.000000
617420.625000 6077559.000000 1800.000000
617420.625000 6077559.000000 1800.000000
617420.625000 6077559.000000 1804.000000
617420.625000 6077559.000000 1804.000000
617420.125000 6077576.000000 1808.000000
617420.125000 6077576.000000 1808.000000
617420.125000 6077576.000000 1812.000000
617420.125000 6077576.000000 1812.000000
617420.125000 6077576.000000 1816.000000
617420.125000 6077576.000000 1816.000000
617419.687500 6077593.500000 1816.000000
617419.687500 6077593.500000 1820.000000
617419.687500 6077593.500000 1820.000000
617419.687500 6077593.500000 1824.000000
617419.687500 6077593.500000 1824.000000
614311.312500 6084180.000000 352.000000
614311.312500 6084180.000000 356.000000
614311.812500 6084163.000000 360.000000
614311.812500 6084163.000000 364.000000
614311.812500 6084163.000000 368.000000
614311.812500 6084163.000000 372.000000
614311.812500 6084163.000000 376.000000
614311.812500 6084163.000000 380.000000
614312.312500 6084145.500000 384.000000
614312.312500 6084145.500000 388.000000
614312.312500 6084145.500000 392.000000
614312.312500 6084145.500000 396.000000
614312.312500 6084145.500000 396.000000
614312.312500 6084145.500000 400.000000
614312.750000 6084128.500000 404.000000
614312.750000 6084128.500000 408.000000
614312.750000 6084128.500000 412.000000
614312.750000 6084128.500000 416.000000
614312.750000 6084128.500000 420.000000
614312.750000 6084128.500000 424.000000
614313.250000 6084111.500000 428.000000
614313.250000 6084111.500000 432.000000
614313.250000 6084111.500000 436.000000
614313.250000 6084111.500000 440.000000
614313.250000 6084111.500000 444.000000
614313.250000 6084111.500000 448.000000
614313.750000 6084094.500000 452.000000
614313.750000 6084094.500000 456.000000
614313.750000 6084094.500000 456.000000
614313.750000 6084094.500000 460.000000
614313.750000 6084094.500000 464.000000
614313.750000 6084094.500000 468.000000
614313.750000 6084094.500000 472.000000
614314.187500 6084077.500000 476.000000
614314.187500 6084077.500000 480.000000
614314.187500 6084077.500000 484.000000
614314.187500 6084077.500000 488.000000
614314.187500 6084077.500000 492.000000
614314.187500 6084077.500000 496.000000
614314.687500 6084060.000000 500.000000
614314.687500 6084060.000000 504.000000
614314.687500 6084060.000000 508.000000
614314.687500 6084060.000000 512.000000
614314.687500 6084060.000000 512.000000
614314.687500 6084060.000000 516.000000
614315.187500 6084043.000000 520.000000
614315.187500 6084043.000000 524.000000
614315.187500 6084043.000000 532.000000
614315.187500 6084043.000000 536.000000
614315.187500 6084043.000000 540.000000
614315.187500 6084043.000000 544.000000
614315.625000 6084026.000000 548.000000
614315.625000 6084026.000000 556.000000
614315.625000 6084026.000000 560.000000
614315.625000 6084026.000000 564.000000
614315.625000 6084026.000000 568.000000
614315.625000 6084026.000000 572.000000
614315.625000 6084026.000000 580.000000
614316.125000 6084009.000000 584.000000
614316.125000 6084009.000000 588.000000
614316.125000 6084009.000000 592.000000
614316.125000 6084009.000000 596.000000
614316.125000 6084009.000000 604.000000
614316.125000 6084009.000000 608.000000
614316.625000 6083992.000000 612.000000
614316.625000 6083992.000000 616.000000
614316.625000 6083992.000000 620.000000
614316.625000 6083992.000000 628.000000
614316.625000 6083992.000000 632.000000
614316.625000 6083992.000000 636.000000
614317.062500 6083974.500000 640.000000
614317.062500 6083974.500000 644.000000
614317.062500 6083974.500000 652.000000
614317.062500 6083974.500000 656.000000
614317.062500 6083974.500000 660.000000
614317.062500 6083974.500000 664.000000
614317.562500 6083957.500000 672.000000
614317.562500 6083957.500000 676.000000
614317.562500 6083957.500000 680.000000
614317.562500 6083957.500000 684.000000
614317.562500 6083957.500000 688.000000
614317.562500 6083957.500000 696.000000
614318.062500 6083940.500000 700.000000
614318.062500 6083940.500000 704.000000
614318.062500 6083940.500000 708.000000
614318.062500 6083940.500000 712.000000
614318.062500 6083940.500000 720.000000
614318.062500 6083940.500000 724.000000
614318.062500 6083940.500000 728.000000
614318.500000 6083923.500000 732.000000
614318.500000 6083923.500000 736.000000
614318.500000 6083923.500000 744.000000
614318.500000 6083923.500000 748.000000
614318.500000 6083923.500000 752.000000
614318.500000 6083923.500000 756.000000
614319.000000 6083906.500000 760.000000
614319.000000 6083906.500000 768.000000
614319.000000 6083906.500000 772.000000
614319.000000 6083906.500000 776.000000
614319.000000 6083906.500000 780.000000
614319.000000 6083906.500000 784.000000
614319.437500 6083889.000000 788.000000
614319.437500 6083889.000000 792.000000
614319.437500 6083889.000000 796.000000
614319.437500 6083889.000000 800.000000
614319.437500 6083889.000000 804.000000
614319.437500 6083889.000000 808.000000
614319.937500 6083872.000000 812.000000
614319.937500 6083872.000000 816.000000
614319.937500 6083872.000000 816.000000
614319.937500 6083872.000000 820.000000
614319.937500 6083872.000000 824.000000
614319.937500 6083872.000000 828.000000
614319.937500 6083872.000000 832.000000
614320.437500 6083855.000000 836.000000
614320.437500 6083855.000000 840.000000
614320.437500 6083855.000000 844.000000
614320.437500 6083855.000000 848.000000
614320.437500 6083855.000000 852.000000
614320.437500 6083855.000000 856.000000
614320.875000 6083838.000000 860.000000
614320.875000 6083838.000000 864.000000
614320.875000 6083838.000000 868.000000
614320.875000 6083838.000000 872.000000
614320.875000 6083838.000000 876.000000
614320.875000 6083838.000000 876.000000
614321.375000 6083821.000000 880.000000
614321.375000 6083821.000000 884.000000
614321.375000 6083821.000000 888.000000
614321.375000 6083821.000000 892.000000
614321.375000 6083821.000000 896.000000
614321.375000 6083821.000000 900.000000
614321.875000 6083803.500000 904.000000
