611489.429528 6081761.320544 1817.011432
611493.482719 6081761.434241 1819.824418
611497.535911 6081761.547937 1822.637404
611501.589102 6081761.661634 1825.450391
610772.042227 6081741.255384 1699.711719
610776.091943 6081741.368547 1701.626533
610780.141659 6081741.481710 1703.541347
610784.191375 6081741.594873 1705.456161
610788.241091 6081741.708036 1707.370975
610792.290807 6081741.821199 1709.285790
610796.340523 6081741.934361 1711.200604
610800.390239 6081742.047524 1713.115418
610804.439955 6081742.160687 1715.030232
610808.489671 6081742.273850 1716.945046
610812.539387 6081742.387013 1718.859860
610816.589102 6081742.500176 1720.774674
610820.638818 6081742.613339 1722.689489
610824.688534 6081742.726502 1724.604303
610828.738250 6081742.839665 1726.519117
610832.787966 6081742.952827 1728.433931
610836.837682 6081743.065990 1730.348745
610840.887398 6081743.179153 1732.263559
610844.937114 6081743.292316 1734.178374
610848.986830 6081743.405479 1736.093188
610853.036546 6081743.518642 1738.008002
610857.086262 6081743.631805 1739.922816
610861.135977 6081743.744968 1741.837630
610865.185693 6081743.858130 1743.752444
610869.235409 6081743.971293 1745.667259
610873.285125 6081744.084456 1747.582073
610877.334841 6081744.197619 1749.496887
610881.384557 6081744.310782 1751.411701
610885.434273 6081744.423945 1753.326515
610889.483989 6081744.537108 1755.241329
610893.533705 6081744.650271 1757.156143
610897.583421 6081744.763433 1759.070958
610901.633137 6081744.876596 1760.985772
610905.682852 6081744.989759 1762.900586
610909.732568 6081745.102922 1764.815400
610913.782284 6081745.216085 1766.730214
610917.832000 6081745.329248 1768.645028
610921.881716 6081745.442411 1770.559843
610925.931432 6081745.555574 1772.474657
610929.981148 6081745.668736 1774.389471
610934.030864 6081745.781899 1776.304285
610938.080580 6081745.895062 1778.219099
610942.130296 6081746.008225 1780.133913
610946.180012 6081746.121388 1782.048728
610950.229727 6081746.234551 1783.963542
610954.279443 6081746.347714 1785.878356
610958.329159 6081746.460877 1787.793170
610962.378875 6081746.574040 1789.707984
610966.428591 6081746.687202 1791.622798
610970.478307 6081746.800365 1793.537612
610974.528023 6081746.913528 1795.452427
610978.577739 6081747.026691 1797.367241
610982.627455 6081747.139854 1799.282055
610986.677171 6081747.253017 1801.196869
610990.726887 6081747.366180 1803.111683
610994.776602 6081747.479343 1805.026497
610998.826318 6081747.592505 1806.941312
611002.876034 6081747.705668 1808.856126
611006.925750 6081747.818831 1810.770940
611010.975466 6081747.931994 1812.685754
611015.025182 6081748.045157 1814.600568
611019.074898 6081748.158320 1816.515382
611023.124614 6081748.271483 1818.430196
611027.174330 6081748.384646 1820.345011
611031.224046 6081748.497808 1822.259825
611035.273762 6081748.610971 1824.174639
611039.323477 6081748.724134 1826.089453
620828.964102 6080021.630384 353.470996
620824.948776 6080021.517991 357.215772
620820.933450 6080021.405597 360.960547
620816.918124 6080021.293204 364.705322
620812.902798 6080021.180810 368.450098
620808.887472 6080021.068417 372.194873
620804.872146 6080020.956023 375.939649
620800.856820 6080020.843630 379.684424
620796.841493 6080020.731236 383.429199
620792.826167 6080020.618843 387.173975
620788.810841 6080020.506449 390.918750
620784.795515 6080020.394056 394.663526
620780.780189 6080020.281662 398.408301
620776.764863 6080020.169269 402.153076
620772.749537 6080020.056875 405.897852
620768.734211 6080019.944482 409.642627
620764.718884 6080019.832088 413.387403
620760.703558 6080019.719695 417.132178
620756.688232 6080019.607301 420.876954
620752.672906 6080019.494908 424.621729
620748.657580 6080019.382514 428.366504
620744.642254 6080019.270121 432.111280
620740.626928 6080019.157727 435.856055
620736.611601 6080019.045334 439.600831
620732.596275 6080018.932940 443.345606
620728.580949 6080018.820547 447.090381
620724.565623 6080018.708153 450.835157
620720.550297 6080018.595760 454.579932
620716.534971 6080018.483366 458.324708
620712.519645 6080018.370973 462.069483
620708.504319 6080018.258579 465.814258
620704.488992 6080018.146186 469.559034
620700.473666 6080018.033792 473.303809
620696.458340 6080017.921399 477.048585
620692.443014 6080017.809005 480.793360
620688.427688 6080017.696612 484.538136
620684.412362 6080017.584218 488.282911
620680.397036 6080017.471825 492.027686
620676.381710 6080017.359431 495.772462
620672.366383 6080017.247038 499.517237
620668.351057 6080017.134644 503.262013
620664.335731 6080017.022251 507.006788
620660.320405 6080016.909857 510.751563
620656.305079 6080016.797464 514.496339
620652.289753 6080016.685070 518.241114
620648.274427 6080016.572677 521.985890
620644.259097 6080016.460405 526.158945
620640.243763 6080016.348313 530.971015
620636.228428 6080016.236222 535.783086
620632.213093 6080016.124131 540.595157
620628.197759 6080016.012039 545.407227
620624.182424 6080015.899948 550.219298
620620.167090 6080015.787857 555.031369
620616.151755 6080015.675765 559.843439
620612.136421 6080015.563674 564.655510
620608.121086 6080015.451583 569.467581
620604.105751 6080015.339491 574.279651
620600.090417 6080015.227400 579.091722
620596.075082 6080015.115309 583.903793
620592.059748 6080015.003217 588.715863
620588.044413 6080014.891126 593.527934
620584.029078 6080014.779035 598.340005
620580.013744 6080014.666943 603.152075
620575.998409 6080014.554852 607.964146
620571.983075 6080014.442761 612.776217
620567.967740 6080014.330669 617.588287
620563.952406 6080014.218578 622.400358
620559.937071 6080014.106487 627.212429
620555.921736 6080013.994395 632.024499
620551.906402 6080013.882304 636.836570
620547.891067 6080013.770213 641.648641
620543.875733 6080013.658121 646.460711
620539.860398 6080013.546030 651.272782
620535.845064 6080013.433939 656.084853
620531.829729 6080013.321847 660.896924
620527.814394 6080013.209756 665.708994
620523.799060 6080013.097665 670.521065
620519.783725 6080012.985573 675.333136
620515.768391 6080012.873482 680.145206
620511.753056 6080012.761391 684.957277
620507.737722 6080012.649299 689.769348
620503.722387 6080012.537208 694.581418
620499.707052 6080012.425117 699.393489
620495.691718 6080012.313025 704.205560
620491.676383 6080012.200934 709.017630
620487.661049 6080012.088843 713.829701
620483.645714 6080011.976751 718.641772
620479.630380 6080011.864660 723.453842
620475.615045 6080011.752569 728.265913
620471.599710 6080011.640477 733.077984
620467.584376 6080011.528386 737.890054
620463.569041 6080011.416295 742.702125
620459.553707 6080011.304203 747.514196
620455.538372 6080011.192112 752.326266
620451.523037 6080011.080021 757.138337
620447.507703 6080010.967929 761.950408
620443.492368 6080010.855838 766.762478
620439.477034 6080010.743747 771.574549
620435.461699 6080010.631655 776.386620
620431.446366 6080010.519528 781.035912
620427.431038 6080010.407201 784.779099
620423.415710 6080010.294873 788.522285
620419.400382 6080010.182546 792.265472
620415.385054 6080010.070218 796.008658
620411.369726 6080009.957891 799.751845
620407.354398 6080009.845563 803.495032
620403.339070 6080009.733236 807.238218
620399.323742 6080009.620909 810.981405
620395.308414 6080009.508581 814.724591
620391.293086 6080009.396254 818.467778
620387.277758 6080009.283926 822.210965
620383.262430 6080009.171599 825.954151
620379.247102 6080009.059271 829.697338
620375.231774 6080008.946944 833.440524
620371.216446 6080008.834617 837.183711
620367.201118 6080008.722289 840.926898
620363.185790 6080008.609962 844.670084
620359.170462 6080008.497634 848.413271
620355.155134 6080008.385307 852.156457
620351.139806 6080008.272979 855.899644
620347.124478 6080008.160652 859.642831
620343.109150 6080008.048325 863.386017
620339.093822 6080007.935997 867.129204
620335.078494 6080007.823670 870.872390
620331.063166 6080007.711342 874.615577
620327.047838 6080007.599015 878.358764
620323.032510 6080007.486687 882.101950
620319.017182 6080007.374360 885.845137
620315.001854 6080007.262032 889.588323
620310.986526 6080007.149705 893.331510
620306.971198 6080007.037378 897.074696
620302.955870 6080006.925050 900.817883
620298.940542 6080006.812723 904.561070
620294.925214 6080006.700395 908.304256
620290.909886 6080006.588068 912.047443
620286.894558 6080006.475740 915.790629
620282.879230 6080006.363413 919.533816
620278.863902 6080006.251086 923.277003
620274.848574 6080006.138758 927.020189
620270.833246 6080006.026431 930.763376
620266.817919 6080005.914103 934.506562
620262.802591 6080005.801776 938.249749
620258.787263 6080005.689448 941.992936
620254.771935 6080005.577121 945.736122
620250.756607 6080005.464794 949.479309
620246.741279 6080005.352466 953.222495
620242.725951 6080005.240139 956.965682
620238.710623 6080005.127811 960.708869
620234.695295 6080005.015484 964.452055
620230.679967 6080004.903156 968.195242
620226.664639 6080004.790829 971.938428
620222.649311 6080004.678502 975.681615
620218.633983 6080004.566174 979.424802
620214.618655 6080004.453847 983.167988
620210.603327 6080004.341519 986.911175
620206.587999 6080004.229192 990.654361
620202.572671 6080004.116864 994.397548
620198.557343 6080004.004537 998.140734
620194.542015 6080003.892209 1001.883921
620190.526687 6080003.779882 1005.627108
620186.511359 6080003.667555 1009.370294
620182.496029 6080003.555288 1013.234675
620178.480686 6080003.443497 1018.053423
620174.465343 6080003.331706 1022.872171
620170.450000 6080003.219916 1027.690919
620166.434657 6080003.108125 1032.509667
620162.419315 6080002.996335 1037.328415
620158.403972 6080002.884544 1042.147163
620154.388629 6080002.772753 1046.965911
620150.373286 6080002.660963 1051.784659
620146.357943 6080002.549172 1056.603407
620142.342600 6080002.437381 1061.422155
620138.327257 6080002.325591 1066.240903
620134.311914 6080002.213800 1071.059651
620130.296571 6080002.102009 1075.878399
620126.281228 6080001.990219 1080.697147
620122.265885 6080001.878428 1085.515895
620118.250542 6080001.766638 1090.334643
620114.235199 6080001.654847 1095.153391
620110.219856 6080001.543056 1099.972139
620106.204513 6080001.431266 1104.790887
620102.189170 6080001.319475 1109.609635
620098.173827 6080001.207684 1114.428383
620094.158484 6080001.095894 1119.247132
620090.143141 6080000.984103 1124.065880
620086.127798 6080000.872313 1128.884628
620082.112455 6080000.760522 1133.703376
620078.097112 6080000.648731 1138.522124
620074.081769 6080000.536941 1143.340872
620070.066426 6080000.425150 1148.159620
620066.051083 6080000.313359 1152.978368
620062.035741 6080000.201569 1157.797116
620058.020398 6080000.089778 1162.615864
620054.005055 6079999.977987 1167.434612
620049.989712 6079999.866197 1172.253360
620045.974369 6079999.754406 1177.072108
620041.959026 6079999.642616 1181.890856
620037.943683 6079999.530825 1186.709604
620033.928340 6079999.419034 1191.528352
620029.912997 6079999.307244 1196.347100
620025.897654 6079999.195453 1201.165848
620021.882311 6079999.083662 1205.984596
620017.866968 6079998.971872 1210.803344
620013.851625 6079998.860081 1215.622092
620009.836282 6079998.748291 1220.440840
620005.820939 6079998.636500 1225.259588
620001.805596 6079998.524709 1230.078336
619997.790253 6079998.412919 1234.897084
619993.774910 6079998.301128 1239.715832
619989.759567 6079998.189337 1244.534580
619985.744224 6079998.077547 1249.353328
619981.728881 6079997.965756 1254.172076
619977.713538 6079997.853965 1258.990824
619973.698195 6079997.742175 1263.809572
619969.682852 6079997.630384 1268.628320
621178.323477 6079531.224134 396.479492
621174.314306 6079531.112221 402.182010
621170.305135 6079531.000308 407.884528
621166.295963 6079530.888395 413.587046
621162.286792 6079530.776482 419.289564
621158.277620 6079530.664570 424.992082
621154.268449 6079530.552657 430.694599
621150.259277 6079530.440744 436.397117
621146.250106 6079530.328831 442.099635
621142.240935 6079530.216918 447.802153
621138.231763 6079530.105005 453.504671
621134.222592 6079529.993092 459.207189
621130.213420 6079529.881179 464.909707
621126.204249 6079529.769266 470.612224
621122.195077 6079529.657353 476.314742
621118.185906 6079529.545440 482.017260
621114.176735 6079529.433527 487.719778
621110.167563 6079529.321614 493.422296
621106.158392 6079529.209701 499.124814
621102.149220 6079529.097788 504.827332
621098.140049 6079528.985876 510.529849
621094.130877 6079528.873963 516.232367
621090.121706 6079528.762050 521.934885
621086.112535 6079528.650137 527.637403
621082.103363 6079528.538224 533.339921
621078.094192 6079528.426311 539.042439
621074.085020 6079528.314398 544.744957
621070.075849 6079528.202485 550.447475
621066.066677 6079528.090572 556.149992
621062.057506 6079527.978659 561.852510
621058.048334 6079527.866746 567.555028
621054.039163 6079527.754833 573.257546
621050.029992 6079527.642920 578.960064
621046.020820 6079527.531007 584.662582
621042.011649 6079527.419094 590.365100
621038.002477 6079527.307182 596.067617
621033.993306 6079527.195269 601.770135
621029.984134 6079527.083356 607.472653
621025.974963 6079526.971443 613.175171
621021.965792 6079526.859530 618.877689
621017.956620 6079526.747617 624.580207
621013.947449 6079526.635704 630.282725
621009.938277 6079526.523791 635.985243
621005.929106 6079526.411878 641.687760
621001.919934 6079526.299965 647.390278
620997.910763 6079526.188052 653.092796
620993.901592 6079526.076139 658.795314
620989.892420 6079525.964226 664.497832
620985.883249 6079525.852313 670.200350
620981.874077 6079525.740400 675.902868
620977.864906 6079525.628479 681.590377
620973.855749 6079525.516064 686.407323
620969.846591 6079525.403648 691.224268
620965.837434 6079525.291233 696.041214
620961.828277 6079525.178818 700.858160
620957.819119 6079525.066402 705.675106
620953.809962 6079524.953987 710.492052
620949.800804 6079524.841572 715.308997
620945.791647 6079524.729156 720.125943
620941.782490 6079524.616741 724.942889
620937.773332 6079524.504326 729.759835
620933.764175 6079524.391910 734.576780
620929.755018 6079524.279495 739.393726
620925.745860 6079524.167080 744.210672
620921.736703 6079524.054664 749.027618
620917.727545 6079523.942249 753.844564
620913.718388 6079523.829834 758.661509
620909.709231 6079523.717418 763.478455
620905.700073 6079523.605003 768.295401
620901.690916 6079523.492588 773.112347
620897.681758 6079523.380172 777.929292
620893.672601 6079523.267757 782.746238
620889.663444 6079523.155342 787.563184
620885.654286 6079523.042926 792.380130
620881.645129 6079522.930511 797.197076
620877.635972 6079522.818096 802.014021
620873.626814 6079522.705680 806.830967
620869.617657 6079522.593265 811.647913
620865.608499 6079522.480850 816.464859
620861.599342 6079522.368434 821.281804
620857.590185 6079522.256019 826.098750
620853.581027 6079522.143604 830.915696
620849.571870 6079522.031188 835.732642
620845.562713 6079521.918773 840.549588
620841.553555 6079521.806358 845.366533
620837.544398 6079521.693942 850.183479
620833.535240 6079521.581527 855.000425
620829.526083 6079521.469111 859.817371
620825.516926 6079521.356696 864.634316
620821.507768 6079521.244281 869.451262
620817.498611 6079521.131865 874.268208
620813.489454 6079521.019450 879.085154
620809.480296 6079520.907035 883.902100
620805.471139 6079520.794619 888.719045
620801.461981 6079520.682204 893.535991
620797.452824 6079520.569789 898.352937
620793.443667 6079520.457373 903.169883
620789.434509 6079520.344958 907.986828
620785.425352 6079520.232543 912.803774
620781.416186 6079520.120437 916.508163
620777.407015 6079520.008500 919.606115
620773.397844 6079519.896562 922.704067
620769.388674 6079519.784625 925.802019
620765.379503 6079519.672688 928.899971
620761.370332 6079519.560750 931.997923
620757.361161 6079519.448813 935.095875
620753.351991 6079519.336876 938.193826
620749.342820 6079519.224938 941.291778
620745.333649 6079519.113001 944.389730
620741.324478 6079519.001064 947.487682
620737.315308 6079518.889126 950.585634
620733.306137 6079518.777189 953.683586
620729.296966 6079518.665252 956.781538
620725.287795 6079518.553315 959.879490
620721.278625 6079518.441377 962.977442
620717.269454 6079518.329440 966.075394
620713.260283 6079518.217503 969.173346
620709.251112 6079518.105565 972.271298
620705.241942 6079517.993628 975.369249
620701.232771 6079517.881691 978.467201
620697.223600 6079517.769753 981.565153
620693.214429 6079517.657816 984.663105
620689.205259 6079517.545879 987.761057
620685.196088 6079517.433941 990.859009
620681.186917 6079517.322004 993.956961
620677.177746 6079517.210067 997.054913
620673.168576 6079517.098130 1000.152865
620669.159405 6079516.986192 1003.250817
620665.150234 6079516.874255 1006.348769
620661.141063 6079516.762318 1009.446721
620657.131893 6079516.650380 1012.544673
620653.122722 6079516.538443 1015.642624
620649.113551 6079516.426506 1018.740576
620645.104380 6079516.314568 1021.838528
620641.095210 6079516.202631 1024.936480
620637.086039 6079516.090694 1028.034432
620633.076868 6079515.978756 1031.132384
620629.067697 6079515.866819 1034.230336
620625.058527 6079515.754882 1037.328288
620621.049356 6079515.642945 1040.426240
620617.040185 6079515.531007 1043.524192
620613.031014 6079515.419070 1046.622144
620609.021843 6079515.307133 1049.720096
620605.012673 6079515.195195 1052.818047
620601.003502 6079515.083258 1055.915999
620596.994331 6079514.971321 1059.013951
620592.985160 6079514.859383 1062.111903
620588.975990 6079514.747446 1065.209855
620584.966819 6079514.635509 1068.307807
620580.957648 6079514.523572 1071.405759
620576.948477 6079514.411634 1074.503711
621843.776602 6078549.474134 322.077881
621839.765488 6078549.362225 327.035639
621835.754373 6078549.250315 331.993396
621831.743258 6078549.138406 336.951154
621827.732143 6078549.026497 341.908912
621823.721028 6078548.914587 346.866670
621819.709914 6078548.802678 351.824427
621815.698799 6078548.690768 356.782185
621811.687684 6078548.578859 361.739943
621807.676569 6078548.466950 366.697701
621803.665454 6078548.355040 371.655458
621799.654340 6078548.243131 376.613216
621795.643225 6078548.131221 381.570974
621791.632110 6078548.019312 386.528732
621787.620995 6078547.907403 391.486489
621783.609880 6078547.795493 396.444247
621779.598766 6078547.683584 401.402005
621775.587651 6078547.571674 406.359763
621771.576536 6078547.459765 411.317520
621767.565421 6078547.347856 416.275278
621763.554306 6078547.235946 421.233036
621759.543192 6078547.124037 426.190794
621755.532077 6078547.012127 431.148551
621751.520962 6078546.900218 436.106309
621747.509847 6078546.788309 441.064067
621743.498732 6078546.676399 446.021825
621739.487618 6078546.564490 450.979582
621735.476503 6078546.452580 455.937340
621731.465388 6078546.340671 460.895098
621727.454273 6078546.228762 465.852856
621723.443158 6078546.116852 470.810613
621719.432043 6078546.004943 475.768371
621715.420929 6078545.893033 480.726129
621711.409814 6078545.781124 485.683887
621707.398699 6078545.669215 490.641644
621703.387584 6078545.557305 495.599402
621699.376469 6078545.445396 500.557160
621695.365355 6078545.333486 505.514918
621691.354240 6078545.221577 510.472676
621687.343125 6078545.109668 515.430433
621683.332010 6078544.997758 520.388191
621679.320895 6078544.885849 525.345949
621675.309781 6078544.773939 530.303707
621671.298666 6078544.662030 535.261464
621667.287551 6078544.550121 540.219222
621663.276436 6078544.438211 545.176980
621659.265321 6078544.326302 550.134738
621655.254207 6078544.214393 555.092495
621651.243092 6078544.102483 560.050253
621647.231977 6078543.990574 565.008011
621643.220862 6078543.878664 569.965769
621639.209747 6078543.766755 574.923526
621635.198633 6078543.654846 579.881284
621631.187518 6078543.542936 584.839042
621627.176403 6078543.431027 589.796800
621623.165288 6078543.319117 594.754557
621619.154173 6078543.207208 599.712315
621615.143059 6078543.095299 604.670073
621611.131944 6078542.983389 609.627831
621607.120829 6078542.871480 614.585588
621603.109714 6078542.759570 619.543346
621599.098599 6078542.647661 624.501104
621595.087485 6078542.535752 629.458862
621591.076370 6078542.423842 634.416619
621587.065255 6078542.311933 639.374377
621583.054140 6078542.200023 644.332135
621579.043025 6078542.088114 649.289893
621575.031910 6078541.976205 654.247650
621571.020796 6078541.864295 659.205408
621567.009681 6078541.752386 664.163166
621562.998566 6078541.640476 669.120924
621558.987452 6078541.528536 674.038507
621554.976349 6078541.416204 678.438969
621550.965246 6078541.303872 682.839430
621546.954143 6078541.191539 687.239892
621542.943040 6078541.079207 691.640353
621538.931937 6078540.966875 696.040815
621534.920834 6078540.854543 700.441276
621530.909731 6078540.742210 704.841738
621526.898628 6078540.629878 709.242199
621522.887525 6078540.517546 713.642661
621518.876422 6078540.405213 718.043122
621514.865319 6078540.292881 722.443584
621510.854216 6078540.180549 726.844045
621506.843113 6078540.068216 731.244507
621502.832010 6078539.955884 735.644968
621498.820907 6078539.843552 740.045430
621494.809804 6078539.731219 744.445891
621490.798701 6078539.618887 748.846353
621486.787598 6078539.506555 753.246814
621482.776495 6078539.394222 757.647276
621478.765392 6078539.281890 762.047737
621474.754289 6078539.169558 766.448199
621470.743186 6078539.057225 770.848660
621466.732083 6078538.944893 775.249122
621462.720981 6078538.832561 779.649583
621458.709878 6078538.720228 784.050045
621454.698775 6078538.607896 788.450506
621450.687672 6078538.495564 792.850968
621446.676569 6078538.383231 797.251429
621442.665466 6078538.270899 801.651891
621438.654363 6078538.158567 806.052352
621434.643260 6078538.046234 810.452814
621430.632157 6078537.933902 814.853275
621426.621054 6078537.821570 819.253737
621422.609951 6078537.709237 823.654198
621418.598848 6078537.596905 828.054660
621414.587745 6078537.484573 832.455121
621410.576642 6078537.372240 836.855583
621406.565539 6078537.259908 841.256044
621402.554436 6078537.147576 845.656506
621398.543333 6078537.035243 850.056967
621394.532230 6078536.922911 854.457429
621390.521127 6078536.810579 858.857890
621386.510024 6078536.698247 863.258352
621382.498921 6078536.585914 867.658813
621378.487818 6078536.473582 872.059275
621374.476715 6078536.361250 876.459736
621370.465612 6078536.248917 880.860198
621366.454509 6078536.136585 885.260659
621362.443406 6078536.024253 889.661121
621358.432303 6078535.911920 894.061582
621354.421200 6078535.799588 898.462044
621350.410097 6078535.687256 902.862505
621346.398994 6078535.574923 907.262967
621342.387891 6078535.462591 911.663428
621338.376788 6078535.350259 916.063890
621334.365685 6078535.237926 920.464351
621330.354582 6078535.125594 924.864813
621326.343479 6078535.013262 929.265274
621322.332376 6078534.900929 933.665736
621318.321273 6078534.788597 938.066197
621314.310170 6078534.676265 942.466659
621310.299067 6078534.563932 946.867120
621306.287964 6078534.451600 951.267582
621302.276861 6078534.339268 955.668044
621298.265758 6078534.226935 960.068505
621294.254655 6078534.114603 964.468967
621290.243552 6078534.002278 968.825897
621286.232442 6078533.890207 971.655797
621282.221331 6078533.778137 974.485696
621278.210221 6078533.666066 977.315596
621274.199111 6078533.553996 980.145496
621270.188000 6078533.441925 982.975395
621266.176890 6078533.329855 985.805295
621262.165780 6078533.217784 988.635195
621258.154670 6078533.105714 991.465094
621254.143559 6078532.993643 994.294994
621250.132449 6078532.881572 997.124894
621246.121339 6078532.769502 999.954793
621242.110228 6078532.657431 1002.784693
621238.099118 6078532.545361 1005.614593
621234.088008 6078532.433290 1008.444492
621230.076897 6078532.321220 1011.274392
621226.065787 6078532.209149 1014.104292
621222.054677 6078532.097079 1016.934191
621218.043566 6078531.985008 1019.764091
621214.032456 6078531.872938 1022.593991
621210.021346 6078531.760867 1025.423890
621206.010236 6078531.648796 1028.253790
621201.999125 6078531.536726 1031.083690
621197.988015 6078531.424655 1033.913590
621193.976905 6078531.312585 1036.743489
621189.965794 6078531.200514 1039.573389
621185.954684 6078531.088444 1042.403289
621181.943574 6078530.976373 1045.233188
621177.932463 6078530.864303 1048.063088
621173.921353 6078530.752232 1050.892988
621169.910243 6078530.640162 1053.722887
621165.899132 6078530.528091 1056.552787
621161.888022 6078530.416020 1059.382687
621157.876912 6078530.303950 1062.212586
621153.865802 6078530.191879 1065.042486
621149.854691 6078530.079809 1067.872386
621145.843581 6078529.967738 1070.702285
621141.832471 6078529.855668 1073.532185
621137.821360 6078529.743597 1076.362085
621133.810250 6078529.631527 1079.191984
621129.799140 6078529.519456 1082.021884
621125.788029 6078529.407386 1084.851784
621121.776919 6078529.295315 1087.681683
621117.765809 6078529.183244 1090.511583
621113.754699 6078529.071174 1093.341483
621109.743588 6078528.959103 1096.171382
621105.732478 6078528.847033 1099.001282
621101.721368 6078528.734962 1101.831182
621097.710257 6078528.622892 1104.661081
621093.699147 6078528.510821 1107.490981
621089.688037 6078528.398751 1110.320881
621085.676926 6078528.286680 1113.150780
621081.665816 6078528.174610 1115.980680
621077.654706 6078528.062539 1118.810580
621073.643595 6078527.950468 1121.640479
621069.632485 6078527.838398 1124.470379
621065.621375 6078527.726327 1127.300279
621061.610265 6078527.614257 1130.130179
621057.599154 6078527.502186 1132.960078
621053.588044 6078527.390116 1135.789978
621049.576934 6078527.278045 1138.619878
621045.565823 6078527.165975 1141.449777
621041.554713 6078527.053904 1144.279677
621037.543603 6078526.941834 1147.109577
621033.532492 6078526.829763 1149.939476
621029.521382 6078526.717692 1152.769376
621025.510272 6078526.605622 1155.599276
621021.499161 6078526.493551 1158.429175
621017.488051 6078526.381481 1161.259075
621013.476941 6078526.269410 1164.088975
621009.465831 6078526.157340 1166.918874
621005.454720 6078526.045269 1169.748774
621001.443610 6078525.933199 1172.578674
620997.432500 6078525.821128 1175.408573
620993.421389 6078525.709057 1178.238473
620989.410279 6078525.596987 1181.068373
620985.399169 6078525.484916 1183.898272
620981.388058 6078525.372846 1186.728172
620977.376948 6078525.260775 1189.558072
620973.365838 6078525.148705 1192.387971
620969.354727 6078525.036634 1195.217871
622233.120352 6077810.099134 381.356494
622229.112481 6077809.986942 386.828037
622225.104609 6077809.874750 392.299579
622221.096737 6077809.762558 397.771122
622217.088865 6077809.650366 403.242664
622213.080993 6077809.538174 408.714207
622209.073121 6077809.425982 414.185750
622205.065250 6077809.313790 419.657292
622201.057378 6077809.201598 425.128835
622197.049506 6077809.089406 430.600377
622193.041634 6077808.977214 436.071920
622189.033762 6077808.865022 441.543462
622185.025890 6077808.752830 447.015005
622181.018019 6077808.640638 452.486547
622177.010147 6077808.528446 457.958090
622173.002275 6077808.416254 463.429633
622168.994403 6077808.304062 468.901175
622164.986531 6077808.191870 474.372718
622160.978659 6077808.079678 479.844260
622156.970787 6077807.967486 485.315803
622152.962916 6077807.855294 490.787345
622148.955044 6077807.743102 496.258888
622144.947172 6077807.630910 501.730430
622140.939300 6077807.518718 507.201973
622136.931428 6077807.406526 512.673516
622132.923556 6077807.294334 518.145058
622128.915685 6077807.182142 523.616601
622124.907813 6077807.069950 529.088143
622120.899941 6077806.957759 534.559686
622116.892069 6077806.845567 540.031228
622112.884197 6077806.733375 545.502771
622108.876325 6077806.621183 550.974314
622104.868454 6077806.508991 556.445856
622100.860582 6077806.396799 561.917399
622096.852710 6077806.284607 567.388941
622092.844838 6077806.172415 572.860484
622088.836966 6077806.060223 578.332026
622084.829094 6077805.948031 583.803569
622080.821223 6077805.835839 589.275111
622076.813351 6077805.723647 594.746654
622072.805479 6077805.611455 600.218197
622068.797607 6077805.499263 605.689739
622064.789734 6077805.387120 610.819533
622060.781856 6077805.275154 614.730167
622056.773977 6077805.163188 618.640800
622052.766099 6077805.051223 622.551434
622048.758221 6077804.939257 626.462067
622044.750343 6077804.827291 630.372701
622040.742465 6077804.715325 634.283335
622036.734587 6077804.603359 638.193968
622032.726708 6077804.491393 642.104602
622028.718830 6077804.379427 646.015236
622024.710952 6077804.267461 649.925869
622020.703074 6077804.155496 653.836503
622016.695196 6077804.043530 657.747137
622012.687318 6077803.931564 661.657770
622008.679439 6077803.819598 665.568404
622004.671561 6077803.707632 669.479038
622000.663683 6077803.595666 673.389671
621996.655805 6077803.483700 677.300305
621992.647927 6077803.371734 681.210939
621988.640049 6077803.259769 685.121572
621984.632170 6077803.147803 689.032206
621980.624292 6077803.035837 692.942840
621976.616414 6077802.923871 696.853473
621972.608536 6077802.811905 700.764107
621968.600658 6077802.699939 704.674741
621964.592780 6077802.587973 708.585374
621960.584902 6077802.476007 712.496008
621956.577023 6077802.364042 716.406642
621952.569145 6077802.252076 720.317275
621948.561267 6077802.140110 724.227909
621944.553389 6077802.028144 728.138543
621940.545511 6077801.916178 732.049176
621936.537633 6077801.804212 735.959810
621932.529754 6077801.692246 739.870444
621928.521876 6077801.580280 743.781077
621924.513998 6077801.468315 747.691711
621920.506120 6077801.356349 751.602345
621916.498242 6077801.244383 755.512978
621912.490364 6077801.132417 759.423612
621908.482485 6077801.020451 763.334246
621904.474607 6077800.908485 767.244879
621900.466729 6077800.796519 771.155513
621896.458851 6077800.684553 775.066147
621892.450973 6077800.572587 778.976780
621888.443095 6077800.460622 782.887414
621884.435216 6077800.348656 786.798048
621880.427338 6077800.236690 790.708681
621876.419460 6077800.124724 794.619315
621872.411582 6077800.012758 798.529949
621868.403704 6077799.900792 802.440582
621864.395826 6077799.788826 806.351216
621860.387947 6077799.676860 810.261850
621856.380069 6077799.564895 814.172483
621852.372191 6077799.452929 818.083117
621848.364313 6077799.340963 821.993751
621844.356435 6077799.228997 825.904384
621840.348557 6077799.117031 829.815018
621836.340678 6077799.005065 833.725652
621832.332800 6077798.893099 837.636285
621828.324922 6077798.781133 841.546919
621824.317044 6077798.669168 845.457552
621820.309166 6077798.557202 849.368186
621816.301288 6077798.445236 853.278820
621812.293409 6077798.333270 857.189453
621808.285531 6077798.221304 861.100087
621804.277653 6077798.109338 865.010721
621800.269775 6077797.997372 868.921354
621796.261897 6077797.885406 872.831988
621792.254019 6077797.773441 876.742622
621788.246140 6077797.661475 880.653255
621784.238262 6077797.549509 884.563889
621780.230384 6077797.437543 888.474523
621776.222506 6077797.325577 892.385156
621772.214628 6077797.213611 896.295790
621768.206750 6077797.101645 900.206424
621764.198871 6077796.989679 904.117057
621760.190993 6077796.877714 908.027691
621756.183115 6077796.765748 911.938325
621752.175237 6077796.653782 915.848958
621748.167359 6077796.541816 919.759592
621744.159481 6077796.429850 923.670226
621740.151602 6077796.317884 927.580859
610982.698477 6074494.630384 1528.811719
610986.754956 6074494.743781 1533.148550
610990.811435 6074494.857179 1537.485381
610994.867914 6074494.970576 1541.822212
610998.924393 6074495.083973 1546.159042
611002.980872 6074495.197370 1550.495873
611007.037351 6074495.310767 1554.832704
611011.093830 6074495.424165 1559.169535
611015.150309 6074495.537562 1563.506366
611019.206788 6074495.650959 1567.843197
611023.263267 6074495.764356 1572.180028
611027.319746 6074495.877753 1576.516859
611031.376225 6074495.991151 1580.853690
611035.432704 6074496.104548 1585.190521
611039.489183 6074496.217945 1589.527352
611043.545662 6074496.331342 1593.864183
611047.602141 6074496.444740 1598.201014
611051.658620 6074496.558137 1602.537845
611055.715099 6074496.671534 1606.874676
611059.771578 6074496.784931 1611.211506
611063.828057 6074496.898328 1615.548337
611067.884536 6074497.011726 1619.885168
611071.941015 6074497.125123 1624.221999
611075.997494 6074497.238520 1628.558830
611080.053973 6074497.351917 1632.895661
611084.110452 6074497.465314 1637.232492
611088.166931 6074497.578712 1641.569323
611092.223410 6074497.692109 1645.906154
611096.279888 6074497.805506 1650.242985
611100.336367 6074497.918903 1654.579816
611104.392846 6074498.032300 1658.916647
611108.449325 6074498.145698 1663.253478
611112.505804 6074498.259095 1667.590309
611116.562283 6074498.372492 1671.927140
611120.618762 6074498.485889 1676.263970
611124.675241 6074498.599286 1680.600801
611128.731720 6074498.712684 1684.937632
611132.788199 6074498.826081 1689.274463
611136.844678 6074498.939478 1693.611294
611140.901157 6074499.052875 1697.948125
611144.957636 6074499.166272 1702.284956
611149.014115 6074499.279670 1706.621787
611153.070594 6074499.393067 1710.958618
611157.127073 6074499.506464 1715.295449
611161.183552 6074499.619861 1719.632280
611165.240031 6074499.733259 1723.969111
611169.296510 6074499.846656 1728.305942
611173.352989 6074499.960053 1732.642773
611177.409468 6074500.073450 1736.979603
611181.465947 6074500.186847 1741.316434
611185.522426 6074500.300245 1745.653265
611189.578905 6074500.413642 1749.990096
611193.635384 6074500.527039 1754.326927
611197.691863 6074500.640436 1758.663758
611201.748342 6074500.753833 1763.000589
611205.804820 6074500.867231 1767.337420
611209.861299 6074500.980628 1771.674251
611213.917778 6074501.094025 1776.011082
611217.974257 6074501.207422 1780.347913
611222.030772 6074501.319524 1785.243585
611226.087369 6074501.428626 1791.434173
611230.143965 6074501.537728 1797.624760
611234.200562 6074501.646829 1803.815347
611238.257159 6074501.755931 1810.005935
611242.313756 6074501.865033 1816.196522
611246.370352 6074501.974134 1822.387109
609075.979727 6074441.317884 1507.723730
609080.024555 6074441.431045 1512.317375
609084.069382 6074441.544205 1516.911020
609088.114210 6074441.657366 1521.504665
609092.159037 6074441.770527 1526.098309
609096.203865 6074441.883687 1530.691954
609100.248692 6074441.996848 1535.285599
609104.293519 6074442.110008 1539.879243
609108.338347 6074442.223169 1544.472888
609112.383174 6074442.336330 1549.066533
609116.428002 6074442.449490 1553.660178
609120.472829 6074442.562651 1558.253822
609124.517656 6074442.675811 1562.847467
609128.562484 6074442.788972 1567.441112
609132.607311 6074442.902133 1572.034756
609136.652139 6074443.015293 1576.628401
609140.696966 6074443.128454 1581.222046
609144.741794 6074443.241614 1585.815691
609148.786621 6074443.354775 1590.409335
609152.831448 6074443.467936 1595.002980
609156.876276 6074443.581096 1599.596625
609160.921103 6074443.694257 1604.190269
609164.965931 6074443.807417 1608.783914
609169.010758 6074443.920578 1613.377559
609173.055585 6074444.033739 1617.971204
609177.100413 6074444.146899 1622.564848
609181.145240 6074444.260060 1627.158493
609185.190068 6074444.373220 1631.752138
609189.234895 6074444.486381 1636.345782
609193.279722 6074444.599542 1640.939427
609197.324550 6074444.712702 1645.533072
609201.369377 6074444.825863 1650.126716
609205.414205 6074444.939023 1654.720361
609209.459032 6074445.052184 1659.314006
609213.503860 6074445.165345 1663.907651
609217.548687 6074445.278505 1668.501295
609221.593514 6074445.391666 1673.094940
609225.638342 6074445.504826 1677.688585
609229.683169 6074445.617987 1682.282229
609233.727997 6074445.731148 1686.875874
609237.772824 6074445.844308 1691.469519
609241.817651 6074445.957469 1696.063164
609245.862479 6074446.070629 1700.656808
609249.907306 6074446.183790 1705.250453
609253.952134 6074446.296951 1709.844098
609257.996961 6074446.410111 1714.437742
609262.041789 6074446.523272 1719.031387
609266.086616 6074446.636432 1723.625032
609270.131443 6074446.749593 1728.218677
609274.176271 6074446.862754 1732.812321
609278.221098 6074446.975914 1737.405966
609282.265926 6074447.089075 1741.999611
609286.310753 6074447.202235 1746.593255
609290.355580 6074447.315396 1751.186900
609294.400408 6074447.428557 1755.780545
609298.445235 6074447.541717 1760.374190
609302.490063 6074447.654878 1764.967834
609306.534890 6074447.768038 1769.561479
609310.579718 6074447.881199 1774.155124
609314.624537 6074447.994643 1783.124964
609318.669320 6074448.109389 1812.203204
609322.714102 6074448.224134 1841.281445
610588.760977 6074483.599134 1547.320801
610592.774979 6074483.711553 1550.831892
610596.788981 6074483.823972 1554.342983
610600.802982 6074483.936391 1557.854074
610604.816984 6074484.048810 1561.365165
610608.830986 6074484.161228 1564.876256
610612.844987 6074484.273647 1568.387347
610616.858989 6074484.386066 1571.898438
610620.872990 6074484.498485 1575.409528
610624.886992 6074484.610904 1578.920619
610628.900994 6074484.723323 1582.431710
610632.914995 6074484.835741 1585.942801
610636.928997 6074484.948160 1589.453892
610640.942999 6074485.060579 1592.964983
610644.957000 6074485.172998 1596.476074
610648.971002 6074485.285417 1599.987165
610652.985003 6074485.397836 1603.498256
610656.999005 6074485.510254 1607.009347
610661.013007 6074485.622673 1610.520438
610665.027008 6074485.735092 1614.031529
610669.041010 6074485.847511 1617.542620
610673.055012 6074485.959930 1621.053711
610677.069013 6074486.072349 1624.564802
610681.083015 6074486.184767 1628.075893
610685.097016 6074486.297186 1631.586984
610689.111018 6074486.409605 1635.098075
610693.125020 6074486.522024 1638.609166
610697.139021 6074486.634443 1642.120257
610701.153023 6074486.746861 1645.631348
610705.167025 6074486.859280 1649.142439
610709.181026 6074486.971699 1652.653530
610713.195028 6074487.084118 1656.164621
610717.209029 6074487.196537 1659.675711
610721.223031 6074487.308956 1663.186802
610725.237033 6074487.421374 1666.697893
610729.251034 6074487.533793 1670.208984
610733.265036 6074487.646212 1673.720075
610737.279038 6074487.758631 1677.231166
610741.293039 6074487.871050 1680.742257
610745.307041 6074487.983469 1684.253348
610749.321042 6074488.095887 1687.764439
610753.335044 6074488.208306 1691.275530
610757.349046 6074488.320725 1694.786621
610761.363047 6074488.433144 1698.297712
610765.377049 6074488.545563 1701.808803
610769.391051 6074488.657982 1705.319894
610773.405052 6074488.770400 1708.830985
610777.419054 6074488.882819 1712.342076
610781.433055 6074488.995238 1715.853167
610785.447057 6074489.107657 1719.364258
610789.461059 6074489.220076 1722.875349
610793.475060 6074489.332495 1726.386440
610797.489062 6074489.444913 1729.897531
610801.503064 6074489.557332 1733.408622
610805.517065 6074489.669751 1736.919713
610809.531067 6074489.782170 1740.430804
610813.545068 6074489.894589 1743.941895
610817.559070 6074490.007008 1747.452985
610821.573072 6074490.119426 1750.964076
610825.587073 6074490.231845 1754.475167
610829.601075 6074490.344264 1757.986258
610833.615077 6074490.456683 1761.497349
610837.629078 6074490.569102 1765.008440
610841.643080 6074490.681521 1768.519531
610845.657081 6074490.793939 1772.030622
610849.671083 6074490.906358 1775.541713
610853.685085 6074491.018777 1779.052804
610857.699086 6074491.131196 1782.563895
610861.713088 6074491.243615 1786.074986
610865.727089 6074491.356034 1789.586077
610869.741091 6074491.468452 1793.097168
610873.755093 6074491.580871 1796.608259
610877.769094 6074491.693290 1800.119350
610881.783096 6074491.805709 1803.630441
610885.797098 6074491.918128 1807.141532
610889.811099 6074492.030547 1810.652623
610893.825101 6074492.142965 1814.163714
610897.839102 6074492.255384 1817.674805
610246.229727 6074474.036634 1553.042090
610250.279256 6074474.149842 1557.625903
610254.328784 6074474.263049 1562.209716
610258.378312 6074474.376257 1566.793529
610262.427841 6074474.489464 1571.377342
610266.477369 6074474.602672 1575.961155
610270.526897 6074474.715879 1580.544968
610274.576426 6074474.829087 1585.128781
610278.625954 6074474.942295 1589.712594
610282.675482 6074475.055502 1594.296407
610286.725010 6074475.168710 1598.880220
610290.774539 6074475.281917 1603.464033
610294.824067 6074475.395125 1608.047846
610298.873595 6074475.508332 1612.631659
610302.923124 6074475.621540 1617.215472
610306.972652 6074475.734747 1621.799285
610311.022180 6074475.847955 1626.383098
610315.071709 6074475.961163 1630.966911
610319.121237 6074476.074370 1635.550724
610323.170765 6074476.187578 1640.134537
610327.220294 6074476.300785 1644.718350
610331.269822 6074476.413993 1649.302163
610335.319350 6074476.527200 1653.885976
610339.368878 6074476.640408 1658.469789
610343.418407 6074476.753615 1663.053602
610347.467935 6074476.866823 1667.637415
610351.517463 6074476.980030 1672.221228
610355.566992 6074477.093238 1676.805041
610359.616520 6074477.206446 1681.388854
610363.666048 6074477.319653 1685.972667
610367.715577 6074477.432861 1690.556480
610371.765105 6074477.546068 1695.140293
610375.814633 6074477.659276 1699.724106
610379.864161 6074477.772483 1704.307919
610383.913690 6074477.885691 1708.891732
610387.963218 6074477.998898 1713.475545
610392.012746 6074478.112106 1718.059358
610396.062275 6074478.225313 1722.643171
610400.111803 6074478.338521 1727.226984
610404.161331 6074478.451729 1731.810797
610408.210860 6074478.564936 1736.394610
610412.260388 6074478.678144 1740.978423
610416.309916 6074478.791351 1745.562237
610420.359444 6074478.904559 1750.146050
610424.408973 6074479.017766 1754.729863
610428.458501 6074479.130974 1759.313676
610432.508029 6074479.244181 1763.897489
610436.557558 6074479.357389 1768.481302
610440.607086 6074479.470596 1773.065115
610444.656614 6074479.583804 1777.648928
610448.706143 6074479.697012 1782.232741
610452.755671 6074479.810219 1786.816554
610456.805199 6074479.923427 1791.400367
610460.854727 6074480.036634 1795.984180
611628.885977 6075262.942884 1552.480566
611632.889356 6075263.054371 1557.450100
611636.892734 6075263.165857 1562.419634
611640.896113 6075263.277344 1567.389168
611644.899491 6075263.388830 1572.358702
611648.902869 6075263.500317 1577.328236
611652.906248 6075263.611803 1582.297770
611656.909626 6075263.723290 1587.267304
611660.913005 6075263.834776 1592.236838
611664.916383 6075263.946263 1597.206371
611668.919761 6075264.057749 1602.175905
611672.923140 6075264.169236 1607.145439
611676.926518 6075264.280722 1612.114973
611680.929896 6075264.392209 1617.084507
611684.933275 6075264.503695 1622.054041
611688.936653 6075264.615182 1627.023575
611692.940032 6075264.726668 1631.993109
611696.943410 6075264.838154 1636.962643
611700.946788 6075264.949641 1641.932176
611704.950167 6075265.061127 1646.901710
611708.953545 6075265.172614 1651.871244
611712.956923 6075265.284100 1656.840778
611716.960302 6075265.395587 1661.810312
611720.963680 6075265.507073 1666.779846
611724.967059 6075265.618560 1671.749380
611728.970437 6075265.730046 1676.718914
611732.973815 6075265.841533 1681.688448
611736.977194 6075265.953019 1686.657981
611740.980572 6075266.064506 1691.627515
611744.983950 6075266.175992 1696.597049
611748.987329 6075266.287479 1701.566583
611752.990707 6075266.398965 1706.536117
611756.994086 6075266.510452 1711.505651
611760.997464 6075266.621938 1716.475185
611765.000842 6075266.733425 1721.444719
611769.004221 6075266.844911 1726.414253
611773.007599 6075266.956398 1731.383786
611777.010977 6075267.067884 1736.353320
610267.776602 6075224.911634 1493.800684
610271.775871 6075225.023409 1499.207621
610275.775140 6075225.135184 1504.614558
610279.774409 6075225.246959 1510.021495
610283.773677 6075225.358734 1515.428432
610287.772946 6075225.470509 1520.835369
610291.772215 6075225.582284 1526.242306
610295.771484 6075225.694059 1531.649243
610299.770752 6075225.805834 1537.056180
610303.770021 6075225.917608 1542.463117
610307.769290 6075226.029383 1547.870055
610311.768559 6075226.141158 1553.276992
610315.767827 6075226.252933 1558.683929
610319.767096 6075226.364708 1564.090866
610323.766365 6075226.476483 1569.497803
610327.765634 6075226.588258 1574.904740
610331.764902 6075226.700033 1580.311677
610335.764171 6075226.811808 1585.718614
610339.763440 6075226.923583 1591.125551
610343.762709 6075227.035358 1596.532488
610347.761977 6075227.147133 1601.939425
610351.761246 6075227.258908 1607.346363
610355.760515 6075227.370682 1612.753300
610359.759783 6075227.482457 1618.160237
610363.759052 6075227.594232 1623.567174
610367.758321 6075227.706007 1628.974111
610371.757590 6075227.817782 1634.381048
610375.756858 6075227.929557 1639.787985
610379.756127 6075228.041332 1645.194922
610383.755396 6075228.153107 1650.601859
610387.754665 6075228.264882 1656.008796
610391.753933 6075228.376657 1661.415733
610395.753202 6075228.488432 1666.822671
610399.752471 6075228.600207 1672.222336
610403.751737 6075228.712068 1676.871268
610407.751003 6075228.823928 1681.520201
610411.750270 6075228.935789 1686.169134
610415.749536 6075229.047650 1690.818067
610419.748803 6075229.159510 1695.467000
610423.748069 6075229.271371 1700.115933
610427.747335 6075229.383231 1704.764866
610431.746602 6075229.495092 1709.413799
610435.745868 6075229.606952 1714.062732
610439.745134 6075229.718813 1718.711665
610443.744401 6075229.830673 1723.360598
610447.743667 6075229.942534 1728.009531
610451.742933 6075230.054394 1732.658464
610455.742200 6075230.166255 1737.307397
610459.741466 6075230.278116 1741.956330
610463.740732 6075230.389976 1746.605263
610467.739999 6075230.501837 1751.254196
610471.739265 6075230.613697 1755.903129
610475.738531 6075230.725558 1760.552062
610479.737798 6075230.837418 1765.200995
610483.737064 6075230.949279 1769.849928
610487.736330 6075231.061139 1774.498861
610491.735597 6075231.173000 1779.147794
610495.734863 6075231.284860 1783.796727
610499.734129 6075231.396721 1788.445660
610503.733396 6075231.508581 1793.094593
610507.732662 6075231.620442 1797.743526
610511.731928 6075231.732303 1802.392459
610515.731195 6075231.844163 1807.041392
610519.730461 6075231.956024 1811.690325
610523.729727 6075232.067884 1816.339258
628649.964102 6087242.661634 423.080273
628645.924776 6087242.548670 428.467306
628641.885449 6087242.435705 433.854338
628637.846122 6087242.322740 439.241370
628633.806795 6087242.209775 444.628402
628629.767468 6087242.096811 450.015434
628625.728141 6087241.983846 455.402467
628621.688814 6087241.870881 460.789499
628617.649487 6087241.757917 466.176531
628613.610160 6087241.644952 471.563563
628609.570833 6087241.531987 476.950595
628605.531506 6087241.419022 482.337628
628601.492179 6087241.306058 487.724660
