6087667.000000 614177.312500 440.000000
6087667.000000 614177.312500 444.000000
6087667.000000 614177.312500 448.000000
6087667.000000 614177.312500 452.000000
6087667.000000 614177.312500 456.000000
6087667.000000 614177.312500 1140.000000
6087667.000000 614177.312500 1136.000000
6087667.000000 614177.312500 1132.000000
6087667.000000 614177.312500 1128.000000
6087667.000000 614177.312500 1124.000000
6087667.000000 614177.312500 1120.000000
6087667.000000 614177.312500 1116.000000
6087667.000000 614177.312500 1112.000000
6087667.000000 614177.312500 1108.000000
6087667.000000 614177.312500 1104.000000
6087667.000000 614177.312500 1100.000000
6087667.000000 614177.312500 1096.000000
6087667.000000 614177.312500 1092.000000
6087667.000000 614177.312500 1088.000000
6087667.000000 614177.312500 1084.000000
6087667.000000 614177.312500 1080.000000
6087667.000000 614177.312500 1076.000000
6087667.000000 614177.312500 1072.000000
6087667.000000 614177.312500 1068.000000
6087667.000000 614177.312500 1064.000000
6087667.000000 614177.312500 1060.000000
6087667.000000 614177.312500 1056.000000
6087667.000000 614177.312500 1052.000000
6087667.000000 614177.312500 1048.000000
6087667.000000 614177.312500 1004.000000
6087667.000000 614177.312500 1008.000000
6087667.000000 614177.312500 1012.000000
6087667.000000 614177.312500 1016.000000
6087667.000000 614177.312500 1020.000000
6087667.000000 614177.312500 1024.000000
6087667.000000 614177.312500 1028.000000
6087667.000000 614177.312500 1032.000000
6087667.000000 614177.312500 1036.000000
6087667.000000 614177.312500 1040.000000
6087667.000000 614177.312500 1044.000000
6087684.000000 614176.875000 524.000000
6087684.000000 614176.875000 520.000000
6087684.000000 614176.875000 516.000000
6087684.000000 614176.875000 512.000000
6087684.000000 614176.875000 508.000000
6087684.000000 614176.875000 504.000000
6087684.000000 614176.875000 500.000000
6087684.000000 614176.875000 496.000000
6087684.000000 614176.875000 492.000000
6087684.000000 614176.875000 488.000000
6087684.000000 614176.875000 484.000000
6087684.000000 614176.875000 480.000000
6087684.000000 614176.875000 476.000000
6087684.000000 614176.875000 472.000000
6087684.000000 614176.875000 468.000000
6087684.000000 614176.875000 464.000000
6087684.000000 614176.875000 420.000000
6087684.000000 614176.875000 424.000000
6087684.000000 614176.875000 428.000000
6087684.000000 614176.875000 432.000000
6087684.000000 614176.875000 436.000000
6087684.000000 614176.875000 440.000000
6087684.000000 614176.875000 444.000000
6087684.000000 614176.875000 448.000000
6087684.000000 614176.875000 452.000000
6087684.000000 614176.875000 456.000000
6087684.000000 614176.875000 460.000000
6087684.000000 614176.875000 1140.000000
6087684.000000 614176.875000 1136.000000
6087684.000000 614176.875000 1132.000000
6087684.000000 614176.875000 1128.000000
6087684.000000 614176.875000 1124.000000
6087684.000000 614176.875000 1120.000000
6087684.000000 614176.875000 1116.000000
6087684.000000 614176.875000 1112.000000
6087684.000000 614176.875000 1108.000000
6087684.000000 614176.875000 1104.000000
6087684.000000 614176.875000 1100.000000
6087684.000000 614176.875000 1096.000000
6087684.000000 614176.875000 1092.000000
6087684.000000 614176.875000 1088.000000
6087684.000000 614176.875000 1084.000000
6087684.000000 614176.875000 1080.000000
6087684.000000 614176.875000 1076.000000
6087684.000000 614176.875000 1072.000000
6087684.000000 614176.875000 1068.000000
6087684.000000 614176.875000 1064.000000
6087684.000000 614176.875000 1060.000000
6087684.000000 614176.875000 1056.000000
6087684.000000 614176.875000 1052.000000
6087684.000000 614176.875000 1048.000000
6087684.000000 614176.875000 1004.000000
6087684.000000 614176.875000 1008.000000
6087684.000000 614176.875000 1012.000000
6087684.000000 614176.875000 1016.000000
6087684.000000 614176.875000 1020.000000
6087684.000000 614176.875000 1024.000000
6087684.000000 614176.875000 1028.000000
6087684.000000 614176.875000 1032.000000
6087684.000000 614176.875000 1036.000000
6087684.000000 614176.875000 1040.000000
6087684.000000 614176.875000 1044.000000
6087701.000000 614176.375000 1680.000000
6087701.000000 614176.375000 1676.000000
6087701.000000 614176.375000 1672.000000
6087701.000000 614176.375000 1668.000000
6087701.000000 614176.375000 1664.000000
6087701.000000 614176.375000 1660.000000
6087701.000000 614176.375000 1656.000000
6087701.000000 614176.375000 1652.000000
6087701.000000 614176.375000 1608.000000
6087701.000000 614176.375000 1612.000000
6087701.000000 614176.375000 1616.000000
6087701.000000 614176.375000 1620.000000
6087701.000000 614176.375000 1624.000000
6087701.000000 614176.375000 1628.000000
6087701.000000 614176.375000 1632.000000
6087701.000000 614176.375000 1636.000000
6087701.000000 614176.375000 1640.000000
6087701.000000 614176.375000 1644.000000
6087701.000000 614176.375000 1648.000000
6087701.000000 614176.375000 528.000000
6087701.000000 614176.375000 524.000000
6087701.000000 614176.375000 520.000000
6087701.000000 614176.375000 516.000000
6087701.000000 614176.375000 512.000000
6087701.000000 614176.375000 508.000000
6087701.000000 614176.375000 504.000000
6087701.000000 614176.375000 500.000000
6087701.000000 614176.375000 496.000000
6087701.000000 614176.375000 492.000000
6087701.000000 614176.375000 488.000000
6087701.000000 614176.375000 484.000000
6087701.000000 614176.375000 480.000000
6087701.000000 614176.375000 476.000000
6087701.000000 614176.375000 472.000000
6087701.000000 614176.375000 468.000000
6087701.000000 614176.375000 424.000000
6087701.000000 614176.375000 428.000000
6087701.000000 614176.375000 432.000000
6087701.000000 614176.375000 436.000000
6087701.000000 614176.375000 440.000000
6087701.000000 614176.375000 444.000000
6087701.000000 614176.375000 448.000000
6087701.000000 614176.375000 452.000000
6087701.000000 614176.375000 456.000000
6087701.000000 614176.375000 460.000000
6087701.000000 614176.375000 464.000000
6087701.000000 614176.375000 1140.000000
6087701.000000 614176.375000 1136.000000
6087701.000000 614176.375000 1132.000000
6087701.000000 614176.375000 1128.000000
6087701.000000 614176.375000 1124.000000
6087701.000000 614176.375000 1120.000000
6087701.000000 614176.375000 1116.000000
6087701.000000 614176.375000 1112.000000
6087701.000000 614176.375000 1108.000000
6087701.000000 614176.375000 1104.000000
6087701.000000 614176.375000 1100.000000
6087701.000000 614176.375000 1096.000000
6087701.000000 614176.375000 1092.000000
6087701.000000 614176.375000 1088.000000
6087701.000000 614176.375000 1084.000000
6087701.000000 614176.375000 1080.000000
6087701.000000 614176.375000 1076.000000
6087701.000000 614176.375000 1072.000000
6087701.000000 614176.375000 1068.000000
6087701.000000 614176.375000 1064.000000
6087701.000000 614176.375000 1060.000000
6087701.000000 614176.375000 1056.000000
6087701.000000 614176.375000 1052.000000
6087701.000000 614176.375000 1048.000000
6087701.000000 614176.375000 1004.000000
6087701.000000 614176.375000 1008.000000
6087701.000000 614176.375000 1012.000000
6087701.000000 614176.375000 1016.000000
6087701.000000 614176.375000 1020.000000
6087701.000000 614176.375000 1024.000000
6087701.000000 614176.375000 1028.000000
6087701.000000 614176.375000 1032.000000
6087701.000000 614176.375000 1036.000000
6087701.000000 614176.375000 1040.000000
6087701.000000 614176.375000 1044.000000
6087718.000000 614175.875000 1680.000000
6087718.000000 614175.875000 1676.000000
6087718.000000 614175.875000 1672.000000
6087718.000000 614175.875000 1668.000000
6087718.000000 614175.875000 1664.000000
6087718.000000 614175.875000 1660.000000
6087718.000000 614175.875000 1656.000000
6087718.000000 614175.875000 1652.000000
6087718.000000 614175.875000 1648.000000
6087718.000000 614175.875000 1604.000000
6087718.000000 614175.875000 1608.000000
6087718.000000 614175.875000 1612.000000
6087718.000000 614175.875000 1616.000000
6087718.000000 614175.875000 1620.000000
6087718.000000 614175.875000 1624.000000
6087718.000000 614175.875000 1628.000000
6087718.000000 614175.875000 1632.000000
6087718.000000 614175.875000 1636.000000
6087718.000000 614175.875000 1640.000000
6087718.000000 614175.875000 1644.000000
6087718.000000 614175.875000 540.000000
6087718.000000 614175.875000 536.000000
6087718.000000 614175.875000 532.000000
6087718.000000 614175.875000 528.000000
6087718.000000 614175.875000 524.000000
6087718.000000 614175.875000 520.000000
6087718.000000 614175.875000 516.000000
6087718.000000 614175.875000 512.000000
6087718.000000 614175.875000 508.000000
6087718.000000 614175.875000 504.000000
6087718.000000 614175.875000 500.000000
6087718.000000 614175.875000 496.000000
6087718.000000 614175.875000 492.000000
6087718.000000 614175.875000 488.000000
6087718.000000 614175.875000 484.000000
6087718.000000 614175.875000 480.000000
6087718.000000 614175.875000 476.000000
6087718.000000 614175.875000 432.000000
6087718.000000 614175.875000 436.000000
6087718.000000 614175.875000 440.000000
6087718.000000 614175.875000 444.000000
6087718.000000 614175.875000 448.000000
6087718.000000 614175.875000 452.000000
6087718.000000 614175.875000 456.000000
6087718.000000 614175.875000 460.000000
6087718.000000 614175.875000 464.000000
6087718.000000 614175.875000 468.000000
6087718.000000 614175.875000 472.000000
6087718.000000 614175.875000 1140.000000
6087718.000000 614175.875000 1136.000000
6087718.000000 614175.875000 1132.000000
6087718.000000 614175.875000 1128.000000
6087718.000000 614175.875000 1124.000000
6087718.000000 614175.875000 1120.000000
6087718.000000 614175.875000 1116.000000
6087718.000000 614175.875000 1112.000000
6087718.000000 614175.875000 1108.000000
6087718.000000 614175.875000 1104.000000
6087718.000000 614175.875000 1100.000000
6087718.000000 614175.875000 1096.000000
6087718.000000 614175.875000 1092.000000
6087718.000000 614175.875000 1088.000000
6087718.000000 614175.875000 1084.000000
6087718.000000 614175.875000 1080.000000
6087718.000000 614175.875000 1076.000000
6087718.000000 614175.875000 1072.000000
6087718.000000 614175.875000 1068.000000
6087718.000000 614175.875000 1064.000000
6087718.000000 614175.875000 1060.000000
6087718.000000 614175.875000 1056.000000
6087718.000000 614175.875000 1052.000000
6087718.000000 614175.875000 1048.000000
6087718.000000 614175.875000 1004.000000
6087718.000000 614175.875000 1008.000000
6087718.000000 614175.875000 1012.000000
6087718.000000 614175.875000 1016.000000
6087718.000000 614175.875000 1020.000000
6087718.000000 614175.875000 1024.000000
6087718.000000 614175.875000 1028.000000
6087718.000000 614175.875000 1032.000000
6087718.000000 614175.875000 1036.000000
6087718.000000 614175.875000 1040.000000
6087718.000000 614175.875000 1044.000000
6087735.000000 614175.437500 1680.000000
6087735.000000 614175.437500 1676.000000
6087735.000000 614175.437500 1672.000000
6087735.000000 614175.437500 1668.000000
6087735.000000 614175.437500 1664.000000
6087735.000000 614175.437500 1660.000000
6087735.000000 614175.437500 1656.000000
6087735.000000 614175.437500 1652.000000
6087735.000000 614175.437500 1648.000000
6087735.000000 614175.437500 1604.000000
6087735.000000 614175.437500 1608.000000
6087735.000000 614175.437500 1612.000000
6087735.000000 614175.437500 1616.000000
6087735.000000 614175.437500 1620.000000
6087735.000000 614175.437500 1624.000000
6087735.000000 614175.437500 1628.000000
6087735.000000 614175.437500 1632.000000
6087735.000000 614175.437500 1636.000000
6087735.000000 614175.437500 1640.000000
6087735.000000 614175.437500 1644.000000
6087735.000000 614175.437500 552.000000
6087735.000000 614175.437500 548.000000
6087735.000000 614175.437500 544.000000
6087735.000000 614175.437500 540.000000
6087735.000000 614175.437500 536.000000
6087735.000000 614175.437500 532.000000
6087735.000000 614175.437500 528.000000
6087735.000000 614175.437500 524.000000
6087735.000000 614175.437500 520.000000
6087735.000000 614175.437500 516.000000
6087735.000000 614175.437500 512.000000
6087735.000000 614175.437500 508.000000
6087735.000000 614175.437500 504.000000
6087735.000000 614175.437500 500.000000
6087735.000000 614175.437500 496.000000
6087735.000000 614175.437500 492.000000
6087735.000000 614175.437500 488.000000
6087735.000000 614175.437500 484.000000
6087735.000000 614175.437500 480.000000
6087735.000000 614175.437500 436.000000
6087735.000000 614175.437500 440.000000
6087735.000000 614175.437500 444.000000
6087735.000000 614175.437500 448.000000
6087735.000000 614175.437500 452.000000
6087735.000000 614175.437500 456.000000
6087735.000000 614175.437500 460.000000
6087735.000000 614175.437500 464.000000
6087735.000000 614175.437500 468.000000
6087735.000000 614175.437500 472.000000
6087735.000000 614175.437500 476.000000
6087735.000000 614175.437500 1140.000000
6087735.000000 614175.437500 1136.000000
6087735.000000 614175.437500 1132.000000
6087735.000000 614175.437500 1128.000000
6087735.000000 614175.437500 1124.000000
6087735.000000 614175.437500 1120.000000
6087735.000000 614175.437500 1116.000000
6087735.000000 614175.437500 1112.000000
6087735.000000 614175.437500 1108.000000
6087735.000000 614175.437500 1104.000000
6087735.000000 614175.437500 1100.000000
6087735.000000 614175.437500 1096.000000
6087735.000000 614175.437500 1092.000000
6087735.000000 614175.437500 1088.000000
6087735.000000 614175.437500 1084.000000
6087735.000000 614175.437500 1080.000000
6087735.000000 614175.437500 1076.000000
6087735.000000 614175.437500 1072.000000
6087735.000000 614175.437500 1068.000000
6087735.000000 614175.437500 1064.000000
6087735.000000 614175.437500 1060.000000
6087735.000000 614175.437500 1056.000000
6087735.000000 614175.437500 1052.000000
6087735.000000 614175.437500 1048.000000
6087735.000000 614175.437500 1004.000000
6087735.000000 614175.437500 1008.000000
6087735.000000 614175.437500 1012.000000
6087735.000000 614175.437500 1016.000000
6087735.000000 614175.437500 1020.000000
6087735.000000 614175.437500 1024.000000
6087735.000000 614175.437500 1028.000000
6087735.000000 614175.437500 1032.000000
6087735.000000 614175.437500 1036.000000
6087735.000000 614175.437500 1040.000000
6087735.000000 614175.437500 1044.000000
6087752.500000 614174.937500 1680.000000
6087752.500000 614174.937500 1676.000000
6087752.500000 614174.937500 1672.000000
6087752.500000 614174.937500 1668.000000
6087752.500000 614174.937500 1664.000000
6087752.500000 614174.937500 1660.000000
6087752.500000 614174.937500 1656.000000
6087752.500000 614174.937500 1652.000000
6087752.500000 614174.937500 1648.000000
6087752.500000 614174.937500 1604.000000
6087752.500000 614174.937500 1608.000000
6087752.500000 614174.937500 1612.000000
6087752.500000 614174.937500 1616.000000
6087752.500000 614174.937500 1620.000000
6087752.500000 614174.937500 1624.000000
6087752.500000 614174.937500 1628.000000
6087752.500000 614174.937500 1632.000000
6087752.500000 614174.937500 1636.000000
6087752.500000 614174.937500 1640.000000
6087752.500000 614174.937500 1644.000000
6087752.500000 614174.937500 556.000000
6087752.500000 614174.937500 552.000000
6087752.500000 614174.937500 548.000000
6087752.500000 614174.937500 544.000000
6087752.500000 614174.937500 540.000000
6087752.500000 614174.937500 536.000000
6087752.500000 614174.937500 532.000000
6087752.500000 614174.937500 528.000000
6087752.500000 614174.937500 524.000000
6087752.500000 614174.937500 520.000000
6087752.500000 614174.937500 516.000000
6087752.500000 614174.937500 512.000000
6087752.500000 614174.937500 508.000000
6087752.500000 614174.937500 504.000000
6087752.500000 614174.937500 500.000000
6087752.500000 614174.937500 496.000000
6087752.500000 614174.937500 492.000000
6087752.500000 614174.937500 488.000000
6087752.500000 614174.937500 444.000000
6087752.500000 614174.937500 448.000000
6087752.500000 614174.937500 452.000000
6087752.500000 614174.937500 456.000000
6087752.500000 614174.937500 460.000000
6087752.500000 614174.937500 464.000000
6087752.500000 614174.937500 468.000000
6087752.500000 614174.937500 472.000000
6087752.500000 614174.937500 476.000000
6087752.500000 614174.937500 480.000000
6087752.500000 614174.937500 484.000000
6087752.500000 614174.937500 1140.000000
6087752.500000 614174.937500 1136.000000
6087752.500000 614174.937500 1132.000000
6087752.500000 614174.937500 1128.000000
6087752.500000 614174.937500 1124.000000
6087752.500000 614174.937500 1120.000000
6087752.500000 614174.937500 1116.000000
6087752.500000 614174.937500 1112.000000
6087752.500000 614174.937500 1108.000000
6087752.500000 614174.937500 1104.000000
6087752.500000 614174.937500 1100.000000
6087752.500000 614174.937500 1096.000000
6087752.500000 614174.937500 1092.000000
6087752.500000 614174.937500 1088.000000
6087752.500000 614174.937500 1084.000000
6087752.500000 614174.937500 1080.000000
6087752.500000 614174.937500 1076.000000
6087752.500000 614174.937500 1072.000000
6087752.500000 614174.937500 1068.000000
6087752.500000 614174.937500 1064.000000
6087752.500000 614174.937500 1060.000000
6087752.500000 614174.937500 1056.000000
6087752.500000 614174.937500 1052.000000
6087752.500000 614174.937500 1048.000000
6087752.500000 614174.937500 1004.000000
6087752.500000 614174.937500 1008.000000
6087752.500000 614174.937500 1012.000000
6087752.500000 614174.937500 1016.000000
6087752.500000 614174.937500 1020.000000
6087752.500000 614174.937500 1024.000000
6087752.500000 614174.937500 1028.000000
6087752.500000 614174.937500 1032.000000
6087752.500000 614174.937500 1036.000000
6087752.500000 614174.937500 1040.000000
6087752.500000 614174.937500 1044.000000
6087769.500000 614174.500000 1680.000000
6087769.500000 614174.500000 1676.000000
6087769.500000 614174.500000 1672.000000
6087769.500000 614174.500000 1668.000000
6087769.500000 614174.500000 1664.000000
6087769.500000 614174.500000 1660.000000
6087769.500000 614174.500000 1656.000000
6087769.500000 614174.500000 1652.000000
6087769.500000 614174.500000 1648.000000
6087769.500000 614174.500000 1604.000000
6087769.500000 614174.500000 1608.000000
6087769.500000 614174.500000 1612.000000
6087769.500000 614174.500000 1616.000000
6087769.500000 614174.500000 1620.000000
6087769.500000 614174.500000 1624.000000
6087769.500000 614174.500000 1628.000000
6087769.500000 614174.500000 1632.000000
6087769.500000 614174.500000 1636.000000
6087769.500000 614174.500000 1640.000000
6087769.500000 614174.500000 1644.000000
6087769.500000 614174.500000 584.000000
6087769.500000 614174.500000 580.000000
6087769.500000 614174.500000 576.000000
6087769.500000 614174.500000 572.000000
6087769.500000 614174.500000 568.000000
6087769.500000 614174.500000 564.000000
6087769.500000 614174.500000 560.000000
6087769.500000 614174.500000 556.000000
6087769.500000 614174.500000 552.000000
6087769.500000 614174.500000 548.000000
6087769.500000 614174.500000 544.000000
6087769.500000 614174.500000 540.000000
6087769.500000 614174.500000 536.000000
6087769.500000 614174.500000 532.000000
6087769.500000 614174.500000 528.000000
6087769.500000 614174.500000 524.000000
6087769.500000 614174.500000 520.000000
6087769.500000 614174.500000 516.000000
6087769.500000 614174.500000 512.000000
6087769.500000 614174.500000 508.000000
6087769.500000 614174.500000 504.000000
6087769.500000 614174.500000 500.000000
6087769.500000 614174.500000 496.000000
6087769.500000 614174.500000 492.000000
6087769.500000 614174.500000 448.000000
6087769.500000 614174.500000 452.000000
6087769.500000 614174.500000 456.000000
6087769.500000 614174.500000 460.000000
6087769.500000 614174.500000 464.000000
6087769.500000 614174.500000 468.000000
6087769.500000 614174.500000 472.000000
6087769.500000 614174.500000 476.000000
6087769.500000 614174.500000 480.000000
6087769.500000 614174.500000 484.000000
6087769.500000 614174.500000 488.000000
6087769.500000 614174.500000 1140.000000
6087769.500000 614174.500000 1136.000000
6087769.500000 614174.500000 1132.000000
6087769.500000 614174.500000 1128.000000
6087769.500000 614174.500000 1124.000000
6087769.500000 614174.500000 1120.000000
6087769.500000 614174.500000 1116.000000
6087769.500000 614174.500000 1112.000000
6087769.500000 614174.500000 1108.000000
6087769.500000 614174.500000 1104.000000
6087769.500000 614174.500000 1100.000000
6087769.500000 614174.500000 1096.000000
6087769.500000 614174.500000 1092.000000
6087769.500000 614174.500000 1088.000000
6087769.500000 614174.500000 1084.000000
6087769.500000 614174.500000 1080.000000
6087769.500000 614174.500000 1076.000000
6087769.500000 614174.500000 1072.000000
6087769.500000 614174.500000 1068.000000
6087769.500000 614174.500000 1064.000000
6087769.500000 614174.500000 1060.000000
6087769.500000 614174.500000 1056.000000
6087769.500000 614174.500000 1052.000000
6087769.500000 614174.500000 1048.000000
6087769.500000 614174.500000 1004.000000
6087769.500000 614174.500000 1008.000000
6087769.500000 614174.500000 1012.000000
6087769.500000 614174.500000 1016.000000
6087769.500000 614174.500000 1020.000000
6087769.500000 614174.500000 1024.000000
6087769.500000 614174.500000 1028.000000
6087769.500000 614174.500000 1032.000000
6087769.500000 614174.500000 1036.000000
6087769.500000 614174.500000 1040.000000
6087769.500000 614174.500000 1044.000000
6087786.500000 614174.000000 1680.000000
6087786.500000 614174.000000 1676.000000
6087786.500000 614174.000000 1672.000000
6087786.500000 614174.000000 1668.000000
6087786.500000 614174.000000 1664.000000
6087786.500000 614174.000000 1660.000000
6087786.500000 614174.000000 1656.000000
6087786.500000 614174.000000 1652.000000
6087786.500000 614174.000000 1648.000000
6087786.500000 614174.000000 1604.000000
6087786.500000 614174.000000 1608.000000
6087786.500000 614174.000000 1612.000000
6087786.500000 614174.000000 1616.000000
6087786.500000 614174.000000 1620.000000
6087786.500000 614174.000000 1624.000000
6087786.500000 614174.000000 1628.000000
6087786.500000 614174.000000 1632.000000
6087786.500000 614174.000000 1636.000000
6087786.500000 614174.000000 1640.000000
6087786.500000 614174.000000 1644.000000
6087786.500000 614174.000000 584.000000
6087786.500000 614174.000000 580.000000
6087786.500000 614174.000000 576.000000
6087786.500000 614174.000000 572.000000
6087786.500000 614174.000000 568.000000
6087786.500000 614174.000000 564.000000
6087786.500000 614174.000000 560.000000
6087786.500000 614174.000000 556.000000
6087786.500000 614174.000000 552.000000
6087786.500000 614174.000000 548.000000
6087786.500000 614174.000000 544.000000
6087786.500000 614174.000000 540.000000
6087786.500000 614174.000000 536.000000
6087786.500000 614174.000000 532.000000
6087786.500000 614174.000000 528.000000
6087786.500000 614174.000000 524.000000
6087786.500000 614174.000000 520.000000
6087786.500000 614174.000000 516.000000
6087786.500000 614174.000000 512.000000
6087786.500000 614174.000000 508.000000
6087786.500000 614174.000000 504.000000
6087786.500000 614174.000000 500.000000
6087786.500000 614174.000000 456.000000
6087786.500000 614174.000000 460.000000
6087786.500000 614174.000000 464.000000
6087786.500000 614174.000000 468.000000
6087786.500000 614174.000000 472.000000
6087786.500000 614174.000000 476.000000
6087786.500000 614174.000000 480.000000
6087786.500000 614174.000000 484.000000
6087786.500000 614174.000000 488.000000
6087786.500000 614174.000000 492.000000
6087786.500000 614174.000000 496.000000
6087786.500000 614174.000000 1140.000000
6087786.500000 614174.000000 1136.000000
6087786.500000 614174.000000 1132.000000
6087786.500000 614174.000000 1128.000000
6087786.500000 614174.000000 1124.000000
6087786.500000 614174.000000 1120.000000
6087786.500000 614174.000000 1116.000000
6087786.500000 614174.000000 1112.000000
6087786.500000 614174.000000 1108.000000
6087786.500000 614174.000000 1104.000000
6087786.500000 614174.000000 1100.000000
6087786.500000 614174.000000 1096.000000
6087786.500000 614174.000000 1092.000000
6087786.500000 614174.000000 1088.000000
6087786.500000 614174.000000 1084.000000
6087786.500000 614174.000000 1080.000000
6087786.500000 614174.000000 1076.000000
6087786.500000 614174.000000 1072.000000
6087786.500000 614174.000000 1068.000000
6087786.500000 614174.000000 1024.000000
6087786.500000 614174.000000 1028.000000
6087786.500000 614174.000000 1032.000000
6087786.500000 614174.000000 1036.000000
6087786.500000 614174.000000 1040.000000
6087786.500000 614174.000000 1044.000000
6087786.500000 614174.000000 1048.000000
6087786.500000 614174.000000 1052.000000
6087786.500000 614174.000000 1056.000000
6087786.500000 614174.000000 1060.000000
6087786.500000 614174.000000 1064.000000
6087803.500000 614173.500000 1680.000000
6087803.500000 614173.500000 1676.000000
6087803.500000 614173.500000 1672.000000
6087803.500000 614173.500000 1668.000000
6087803.500000 614173.500000 1664.000000
6087803.500000 614173.500000 1660.000000
6087803.500000 614173.500000 1656.000000
6087803.500000 614173.500000 1652.000000
6087803.500000 614173.500000 1648.000000
6087803.500000 614173.500000 1604.000000
6087803.500000 614173.500000 1608.000000
6087803.500000 614173.500000 1612.000000
6087803.500000 614173.500000 1616.000000
6087803.500000 614173.500000 1620.000000
6087803.500000 614173.500000 1624.000000
6087803.500000 614173.500000 1628.000000
6087803.500000 614173.500000 1632.000000
6087803.500000 614173.500000 1636.000000
6087803.500000 614173.500000 1640.000000
6087803.500000 614173.500000 1644.000000
6087803.500000 614173.500000 584.000000
6087803.500000 614173.500000 580.000000
6087803.500000 614173.500000 576.000000
6087803.500000 614173.500000 572.000000
6087803.500000 614173.500000 568.000000
6087803.500000 614173.500000 564.000000
6087803.500000 614173.500000 560.000000
6087803.500000 614173.500000 556.000000
6087803.500000 614173.500000 552.000000
6087803.500000 614173.500000 548.000000
6087803.500000 614173.500000 544.000000
6087803.500000 614173.500000 540.000000
6087803.500000 614173.500000 536.000000
6087803.500000 614173.500000 532.000000
6087803.500000 614173.500000 528.000000
6087803.500000 614173.500000 524.000000
6087803.500000 614173.500000 520.000000
6087803.500000 614173.500000 516.000000
6087803.500000 614173.500000 512.000000
6087803.500000 614173.500000 508.000000
6087803.500000 614173.500000 464.000000
6087803.500000 614173.500000 468.000000
6087803.500000 614173.500000 472.000000
6087803.500000 614173.500000 476.000000
6087803.500000 614173.500000 480.000000
6087803.500000 614173.500000 484.000000
6087803.500000 614173.500000 488.000000
6087803.500000 614173.500000 492.000000
6087803.500000 614173.500000 496.000000
6087803.500000 614173.500000 500.000000
6087803.500000 614173.500000 504.000000
6087803.500000 614173.500000 1140.000000
6087803.500000 614173.500000 1136.000000
6087803.500000 614173.500000 1132.000000
6087803.500000 614173.500000 1128.000000
6087803.500000 614173.500000 1124.000000
6087803.500000 614173.500000 1120.000000
6087803.500000 614173.500000 1116.000000
6087803.500000 614173.500000 1112.000000
6087803.500000 614173.500000 1108.000000
6087803.500000 614173.500000 1104.000000
6087803.500000 614173.500000 1100.000000
6087803.500000 614173.500000 1096.000000
6087803.500000 614173.500000 1092.000000
6087803.500000 614173.500000 1088.000000
6087803.500000 614173.500000 1084.000000
6087803.500000 614173.500000 1080.000000
6087803.500000 614173.500000 1076.000000
6087803.500000 614173.500000 1032.000000
6087803.500000 614173.500000 1036.000000
6087803.500000 614173.500000 1040.000000
6087803.500000 614173.500000 1044.000000
6087803.500000 614173.500000 1048.000000
6087803.500000 614173.500000 1052.000000
6087803.500000 614173.500000 1056.000000
6087803.500000 614173.500000 1060.000000
6087803.500000 614173.500000 1064.000000
6087803.500000 614173.500000 1068.000000
6087803.500000 614173.500000 1072.000000
6087820.500000 614173.062500 1680.000000
6087820.500000 614173.062500 1676.000000
6087820.500000 614173.062500 1672.000000
6087820.500000 614173.062500 1668.000000
6087820.500000 614173.062500 1664.000000
6087820.500000 614173.062500 1660.000000
6087820.500000 614173.062500 1656.000000
6087820.500000 614173.062500 1652.000000
6087820.500000 614173.062500 1648.000000
6087820.500000 614173.062500 1604.000000
6087820.500000 614173.062500 1608.000000
6087820.500000 614173.062500 1612.000000
6087820.500000 614173.062500 1616.000000
6087820.500000 614173.062500 1620.000000
6087820.500000 614173.062500 1624.000000
6087820.500000 614173.062500 1628.000000
6087820.500000 614173.062500 1632.000000
6087820.500000 614173.062500 1636.000000
6087820.500000 614173.062500 1640.000000
6087820.500000 614173.062500 1644.000000
6087820.500000 614173.062500 584.000000
6087820.500000 614173.062500 580.000000
6087820.500000 614173.062500 576.000000
6087820.500000 614173.062500 572.000000
6087820.500000 614173.062500 568.000000
6087820.500000 614173.062500 564.000000
6087820.500000 614173.062500 560.000000
6087820.500000 614173.062500 556.000000
6087820.500000 614173.062500 552.000000
6087820.500000 614173.062500 548.000000
6087820.500000 614173.062500 544.000000
6087820.500000 614173.062500 540.000000
6087820.500000 614173.062500 536.000000
6087820.500000 614173.062500 532.000000
6087820.500000 614173.062500 528.000000
6087820.500000 614173.062500 524.000000
6087820.500000 614173.062500 520.000000
6087820.500000 614173.062500 516.000000
6087820.500000 614173.062500 512.000000
6087820.500000 614173.062500 468.000000
6087820.500000 614173.062500 472.000000
6087820.500000 614173.062500 476.000000
6087820.500000 614173.062500 480.000000
6087820.500000 614173.062500 484.000000
6087820.500000 614173.062500 488.000000
6087820.500000 614173.062500 492.000000
6087820.500000 614173.062500 496.000000
6087820.500000 614173.062500 500.000000
6087820.500000 614173.062500 504.000000
6087820.500000 614173.062500 508.000000
6087820.500000 614173.062500 1136.000000
6087820.500000 614173.062500 1140.000000
6087820.500000 614173.062500 1132.000000
6087820.500000 614173.062500 1128.000000
6087820.500000 614173.062500 1124.000000
6087820.500000 614173.062500 1120.000000
6087820.500000 614173.062500 1116.000000
6087820.500000 614173.062500 1112.000000
6087820.500000 614173.062500 1108.000000
6087820.500000 614173.062500 1104.000000
6087820.500000 614173.062500 1100.000000
6087820.500000 614173.062500 1096.000000
6087820.500000 614173.062500 1092.000000
6087820.500000 614173.062500 1088.000000
6087820.500000 614173.062500 1084.000000
6087820.500000 614173.062500 1080.000000
6087820.500000 614173.062500 1036.000000
6087820.500000 614173.062500 1040.000000
6087820.500000 614173.062500 1044.000000
6087820.500000 614173.062500 1048.000000
6087820.500000 614173.062500 1052.000000
6087820.500000 614173.062500 1056.000000
6087820.500000 614173.062500 1060.000000
6087820.500000 614173.062500 1064.000000
6087820.500000 614173.062500 1068.000000
6087820.500000 614173.062500 1072.000000
6087820.500000 614173.062500 1076.000000
6087838.000000 614172.562500 1680.000000
6087838.000000 614172.562500 1676.000000
6087838.000000 614172.562500 1672.000000
6087838.000000 614172.562500 1668.000000
6087838.000000 614172.562500 1664.000000
6087838.000000 614172.562500 1660.000000
6087838.000000 614172.562500 1656.000000
6087838.000000 614172.562500 1652.000000
6087838.000000 614172.562500 1648.000000
6087838.000000 614172.562500 1604.000000
6087838.000000 614172.562500 1608.000000
6087838.000000 614172.562500 1612.000000
6087838.000000 614172.562500 1616.000000
6087838.000000 614172.562500 1620.000000
6087838.000000 614172.562500 1624.000000
6087838.000000 614172.562500 1628.000000
6087838.000000 614172.562500 1632.000000
6087838.000000 614172.562500 1636.000000
6087838.000000 614172.562500 1640.000000
6087838.000000 614172.562500 1644.000000
6087838.000000 614172.562500 584.000000
6087838.000000 614172.562500 580.000000
6087838.000000 614172.562500 576.000000
6087838.000000 614172.562500 572.000000
6087838.000000 614172.562500 568.000000
6087838.000000 614172.562500 564.000000
6087838.000000 614172.562500 560.000000
6087838.000000 614172.562500 556.000000
6087838.000000 614172.562500 552.000000
6087838.000000 614172.562500 548.000000
6087838.000000 614172.562500 544.000000
6087838.000000 614172.562500 540.000000
6087838.000000 614172.562500 536.000000
6087838.000000 614172.562500 532.000000
6087838.000000 614172.562500 528.000000
6087838.000000 614172.562500 524.000000
6087838.000000 614172.562500 520.000000
6087838.000000 614172.562500 516.000000
6087838.000000 614172.562500 472.000000
6087838.000000 614172.562500 476.000000
6087838.000000 614172.562500 480.000000
6087838.000000 614172.562500 484.000000
6087838.000000 614172.562500 488.000000
6087838.000000 614172.562500 492.000000
6087838.000000 614172.562500 496.000000
6087838.000000 614172.562500 500.000000
6087838.000000 614172.562500 504.000000
6087838.000000 614172.562500 508.000000
6087838.000000 614172.562500 512.000000
6087855.000000 614172.062500 1680.000000
6087855.000000 614172.062500 1676.000000
6087855.000000 614172.062500 1672.000000
6087855.000000 614172.062500 1668.000000
6087855.000000 614172.062500 1664.000000
6087855.000000 614172.062500 1660.000000
6087855.000000 614172.062500 1656.000000
6087855.000000 614172.062500 1652.000000
6087855.000000 614172.062500 1648.000000
6087855.000000 614172.062500 1604.000000
6087855.000000 614172.062500 1608.000000
6087855.000000 614172.062500 1612.000000
6087855.000000 614172.062500 1616.000000
6087855.000000 614172.062500 1620.000000
6087855.000000 614172.062500 1624.000000
6087855.000000 614172.062500 1628.000000
6087855.000000 614172.062500 1632.000000
6087855.000000 614172.062500 1636.000000
6087855.000000 614172.062500 1640.000000
6087855.000000 614172.062500 1644.000000
6087855.000000 614172.062500 584.000000
6087855.000000 614172.062500 580.000000
6087855.000000 614172.062500 576.000000
6087855.000000 614172.062500 572.000000
6087855.000000 614172.062500 568.000000
6087855.000000 614172.062500 564.000000
6087855.000000 614172.062500 560.000000
6087855.000000 614172.062500 556.000000
6087855.000000 614172.062500 552.000000
6087855.000000 614172.062500 548.000000
6087855.000000 614172.062500 544.000000
6087855.000000 614172.062500 540.000000
6087855.000000 614172.062500 536.000000
6087855.000000 614172.062500 532.000000
6087855.000000 614172.062500 528.000000
6087855.000000 614172.062500 524.000000
6087855.000000 614172.062500 480.000000
6087855.000000 614172.062500 484.000000
6087855.000000 614172.062500 488.000000
6087855.000000 614172.062500 492.000000
6087855.000000 614172.062500 496.000000
6087855.000000 614172.062500 500.000000
6087855.000000 614172.062500 504.000000
6087855.000000 614172.062500 508.000000
6087855.000000 614172.062500 512.000000
6087855.000000 614172.062500 516.000000
6087855.000000 614172.062500 520.000000
6087872.000000 614171.625000 1680.000000
6087872.000000 614171.625000 1676.000000
6087872.000000 614171.625000 1672.000000
6087872.000000 614171.625000 1668.000000
6087872.000000 614171.625000 1664.000000
6087872.000000 614171.625000 1660.000000
6087872.000000 614171.625000 1656.000000
6087872.000000 614171.625000 1652.000000
6087872.000000 614171.625000 1648.000000
6087872.000000 614171.625000 1604.000000
6087872.000000 614171.625000 1608.000000
6087872.000000 614171.625000 1612.000000
6087872.000000 614171.625000 1616.000000
6087872.000000 614171.625000 1620.000000
6087872.000000 614171.625000 1624.000000
6087872.000000 614171.625000 1628.000000
6087872.000000 614171.625000 1632.000000
6087872.000000 614171.625000 1636.000000
6087872.000000 614171.625000 1640.000000
6087872.000000 614171.625000 1644.000000
6087872.000000 614171.625000 584.000000
6087872.000000 614171.625000 580.000000
6087872.000000 614171.625000 576.000000
6087872.000000 614171.625000 572.000000
6087872.000000 614171.625000 568.000000
6087872.000000 614171.625000 564.000000
6087872.000000 614171.625000 560.000000
6087872.000000 614171.625000 556.000000
6087872.000000 614171.625000 552.000000
6087872.000000 614171.625000 548.000000
6087872.000000 614171.625000 544.000000
6087872.000000 614171.625000 540.000000
6087872.000000 614171.625000 536.000000
6087872.000000 614171.625000 532.000000
6087872.000000 614171.625000 488.000000
6087872.000000 614171.625000 492.000000
6087872.000000 614171.625000 496.000000
6087872.000000 614171.625000 500.000000
6087872.000000 614171.625000 504.000000
6087872.000000 614171.625000 508.000000
6087872.000000 614171.625000 512.000000
6087872.000000 614171.625000 516.000000
6087872.000000 614171.625000 520.000000
6087872.000000 614171.625000 524.000000
6087872.000000 614171.625000 528.000000
6087889.000000 614171.125000 1652.000000
6087889.000000 614171.125000 1656.000000
6087889.000000 614171.125000 1660.000000
6087889.000000 614171.125000 1664.000000
6087889.000000 614171.125000 1668.000000
6087889.000000 614171.125000 1672.000000
6087889.000000 614171.125000 1676.000000
6087889.000000 614171.125000 1680.000000
6087889.000000 614171.125000 1648.000000
6087889.000000 614171.125000 1604.000000
6087889.000000 614171.125000 1608.000000
6087889.000000 614171.125000 1612.000000
6087889.000000 614171.125000 1616.000000
6087889.000000 614171.125000 1620.000000
6087889.000000 614171.125000 1624.000000
6087889.000000 614171.125000 1628.000000
6087889.000000 614171.125000 1632.000000
6087889.000000 614171.125000 1636.000000
6087889.000000 614171.125000 1640.000000
6087889.000000 614171.125000 1644.000000
6087889.000000 614171.125000 584.000000
6087889.000000 614171.125000 580.000000
6087889.000000 614171.125000 576.000000
6087889.000000 614171.125000 572.000000
6087889.000000 614171.125000 568.000000
6087889.000000 614171.125000 564.000000
6087889.000000 614171.125000 560.000000
6087889.000000 614171.125000 556.000000
6087889.000000 614171.125000 552.000000
6087889.000000 614171.125000 548.000000
6087889.000000 614171.125000 544.000000
6087889.000000 614171.125000 540.000000
6087889.000000 614171.125000 536.000000
6087889.000000 614171.125000 492.000000
6087889.000000 614171.125000 496.000000
6087889.000000 614171.125000 500.000000
6087889.000000 614171.125000 504.000000
6087889.000000 614171.125000 508.000000
6087889.000000 614171.125000 512.000000
6087889.000000 614171.125000 516.000000
6087889.000000 614171.125000 520.000000
6087889.000000 614171.125000 524.000000
6087889.000000 614171.125000 528.000000
6087889.000000 614171.125000 532.000000
6087906.000000 614170.625000 1640.000000
6087906.000000 614170.625000 1644.000000
6087906.000000 614170.625000 1648.000000
6087906.000000 614170.625000 1652.000000
6087906.000000 614170.625000 1656.000000
6087906.000000 614170.625000 1660.000000
6087906.000000 614170.625000 1664.000000
6087906.000000 614170.625000 1668.000000
6087906.000000 614170.625000 1672.000000
6087906.000000 614170.625000 1676.000000
6087906.000000 614170.625000 1680.000000
6087906.000000 614170.625000 584.000000
6087906.000000 614170.625000 580.000000
6087906.000000 614170.625000 576.000000
6087906.000000 614170.625000 572.000000
6087906.000000 614170.625000 568.000000
6087906.000000 614170.625000 564.000000
6087906.000000 614170.625000 560.000000
6087906.000000 614170.625000 556.000000
6087906.000000 614170.625000 552.000000
6087906.000000 614170.625000 548.000000
6087906.000000 614170.625000 504.000000
6087906.000000 614170.625000 508.000000
6087906.000000 614170.625000 512.000000
6087906.000000 614170.625000 516.000000
6087906.000000 614170.625000 520.000000
6087906.000000 614170.625000 524.000000
6087906.000000 614170.625000 528.000000
6087906.000000 614170.625000 532.000000
6087906.000000 614170.625000 536.000000
6087906.000000 614170.625000 540.000000
6087906.000000 614170.625000 544.000000
6087923.500000 614170.187500 584.000000
6087923.500000 614170.187500 580.000000
6087923.500000 614170.187500 576.000000
6087923.500000 614170.187500 572.000000
6087923.500000 614170.187500 568.000000
6087923.500000 614170.187500 564.000000
6087923.500000 614170.187500 560.000000
6087923.500000 614170.187500 516.000000
6087923.500000 614170.187500 520.000000
6087923.500000 614170.187500 524.000000
6087923.500000 614170.187500 528.000000
6087923.500000 614170.187500 532.000000
6087923.500000 614170.187500 536.000000
6087923.500000 614170.187500 540.000000
6087923.500000 614170.187500 544.000000
6087923.500000 614170.187500 548.000000
6087923.500000 614170.187500 552.000000
6087923.500000 614170.187500 556.000000
6087940.500000 614169.687500 584.000000
6087940.500000 614169.687500 580.000000
6087940.500000 614169.687500 576.000000
6087940.500000 614169.687500 572.000000
6087940.500000 614169.687500 568.000000
6087940.500000 614169.687500 564.000000
6087940.500000 614169.687500 520.000000
6087940.500000 614169.687500 524.000000
6087940.500000 614169.687500 528.000000
6087940.500000 614169.687500 532.000000
6087940.500000 614169.687500 536.000000
6087940.500000 614169.687500 540.000000
6087940.500000 614169.687500 544.000000
6087940.500000 614169.687500 548.000000
6087940.500000 614169.687500 552.000000
6087940.500000 614169.687500 556.000000
6087940.500000 614169.687500 560.000000
6088179.500000 614163.000000 1696.000000
6088179.500000 614163.000000 1652.000000
6088179.500000 614163.000000 1656.000000
6088179.500000 614163.000000 1660.000000
6088179.500000 614163.000000 1664.000000
6088179.500000 614163.000000 1668.000000
6088179.500000 614163.000000 1672.000000
6088179.500000 614163.000000 1676.000000
6088179.500000 614163.000000 1680.000000
6088179.500000 614163.000000 1684.000000
6088179.500000 614163.000000 1688.000000
6088179.500000 614163.000000 1692.000000
6088197.000000 614162.500000 1696.000000
6088197.000000 614162.500000 1652.000000
6088197.000000 614162.500000 1656.000000
6088197.000000 614162.500000 1660.000000
6088197.000000 614162.500000 1664.000000
6088197.000000 614162.500000 1668.000000
6088197.000000 614162.500000 1672.000000
6088197.000000 614162.500000 1676.000000
6088197.000000 614162.500000 1680.000000
6088197.000000 614162.500000 1684.000000
6088197.000000 614162.500000 1688.000000
6088197.000000 614162.500000 1692.000000
6088214.000000 614162.062500 1696.000000
6088214.000000 614162.062500 1692.000000
6088214.000000 614162.062500 1688.000000
6088214.000000 614162.062500 1644.000000
6088214.000000 614162.062500 1648.000000
6088214.000000 614162.062500 1652.000000
6088214.000000 614162.062500 1656.000000
6088214.000000 614162.062500 1660.000000
6088214.000000 614162.062500 1664.000000
6088214.000000 614162.062500 1668.000000
6088214.000000 614162.062500 1672.000000
6088214.000000 614162.062500 1676.000000
6088214.000000 614162.062500 1680.000000
6088214.000000 614162.062500 1684.000000
6088231.000000 614161.562500 1696.000000
6088231.000000 614161.562500 1692.000000
6088231.000000 614161.562500 1688.000000
6088231.000000 614161.562500 1684.000000
6088231.000000 614161.562500 1640.000000
6088231.000000 614161.562500 1644.000000
6088231.000000 614161.562500 1648.000000
6088231.000000 614161.562500 1652.000000
6088231.000000 614161.562500 1656.000000
6088231.000000 614161.562500 1660.000000
6088231.000000 614161.562500 1664.000000
6088231.000000 614161.562500 1668.000000
6088231.000000 614161.562500 1672.000000
6088231.000000 614161.562500 1676.000000
6088231.000000 614161.562500 1680.000000
6088248.000000 614161.062500 1696.000000
6088248.000000 614161.062500 1692.000000
6088248.000000 614161.062500 1688.000000
6088248.000000 614161.062500 1684.000000
6088248.000000 614161.062500 1680.000000
6088248.000000 614161.062500 1636.000000
6088248.000000 614161.062500 1640.000000
6088248.000000 614161.062500 1644.000000
6088248.000000 614161.062500 1648.000000
6088248.000000 614161.062500 1652.000000
6088248.000000 614161.062500 1656.000000
6088248.000000 614161.062500 1660.000000
6088248.000000 614161.062500 1664.000000
6088248.000000 614161.062500 1668.000000
6088248.000000 614161.062500 1672.000000
6088248.000000 614161.062500 1676.000000
6088265.000000 614160.625000 1696.000000
6088265.000000 614160.625000 1692.000000
6088265.000000 614160.625000 1688.000000
6088265.000000 614160.625000 1684.000000
6088265.000000 614160.625000 1680.000000
6088265.000000 614160.625000 1676.000000
6088265.000000 614160.625000 1632.000000
6088265.000000 614160.625000 1636.000000
6088265.000000 614160.625000 1640.000000
6088265.000000 614160.625000 1644.000000
6088265.000000 614160.625000 1648.000000
6088265.000000 614160.625000 1652.000000
6088265.000000 614160.625000 1656.000000
6088265.000000 614160.625000 1660.000000
6088265.000000 614160.625000 1664.000000
6088265.000000 614160.625000 1668.000000
6088265.000000 614160.625000 1672.000000
6088282.500000 614160.125000 1696.000000
6088282.500000 614160.125000 1692.000000
6088282.500000 614160.125000 1688.000000
6088282.500000 614160.125000 1684.000000
6088282.500000 614160.125000 1680.000000
6088282.500000 614160.125000 1676.000000
6088282.500000 614160.125000 1672.000000
6088282.500000 614160.125000 1668.000000
6088282.500000 614160.125000 1624.000000
6088282.500000 614160.125000 1628.000000
6088282.500000 614160.125000 1632.000000
6088282.500000 614160.125000 1636.000000
6088282.500000 614160.125000 1640.000000
6088282.500000 614160.125000 1644.000000
6088282.500000 614160.125000 1648.000000
6088282.500000 614160.125000 1652.000000
6088282.500000 614160.125000 1656.000000
6088282.500000 614160.125000 1660.000000
6088282.500000 614160.125000 1664.000000
6088299.500000 614159.625000 1696.000000
6088299.500000 614159.625000 1692.000000
6088299.500000 614159.625000 1688.000000
6088299.500000 614159.625000 1684.000000
6088299.500000 614159.625000 1680.000000
6088299.500000 614159.625000 1676.000000
6088299.500000 614159.625000 1672.000000
6088299.500000 614159.625000 1668.000000
6088299.500000 614159.625000 1664.000000
6088299.500000 614159.625000 1660.000000
6088299.500000 614159.625000 1644.000000
6088299.500000 614159.625000 1648.000000
6088299.500000 614159.625000 1652.000000
6088299.500000 614159.625000 1656.000000
6088299.500000 614159.625000 1640.000000
6088299.500000 614159.625000 1596.000000
6088299.500000 614159.625000 1600.000000
6088299.500000 614159.625000 1604.000000
6088299.500000 614159.625000 1608.000000
6088299.500000 614159.625000 1612.000000
6088299.500000 614159.625000 1616.000000
6088299.500000 614159.625000 1620.000000
6088299.500000 614159.625000 1624.000000
6088299.500000 614159.625000 1628.000000
6088299.500000 614159.625000 1632.000000
6088299.500000 614159.625000 1636.000000
6088316.500000 614159.187500 1696.000000
6088316.500000 614159.187500 1692.000000
6088316.500000 614159.187500 1688.000000
6088316.500000 614159.187500 1684.000000
6088316.500000 614159.187500 1680.000000
6088316.500000 614159.187500 1676.000000
6088316.500000 614159.187500 1672.000000
6088316.500000 614159.187500 1668.000000
6088316.500000 614159.187500 1664.000000
6088316.500000 614159.187500 1660.000000
6088316.500000 614159.187500 1656.000000
6088316.500000 614159.187500 1652.000000
6088316.500000 614159.187500 1648.000000
6088316.500000 614159.187500 1644.000000
6088316.500000 614159.187500 1640.000000
6088316.500000 614159.187500 1636.000000
6088316.500000 614159.187500 1632.000000
6088316.500000 614159.187500 1588.000000
6088316.500000 614159.187500 1592.000000
6088316.500000 614159.187500 1596.000000
6088316.500000 614159.187500 1600.000000
6088316.500000 614159.187500 1604.000000
6088316.500000 614159.187500 1608.000000
6088316.500000 614159.187500 1612.000000
6088316.500000 614159.187500 1616.000000
6088316.500000 614159.187500 1620.000000
6088316.500000 614159.187500 1624.000000
6088316.500000 614159.187500 1628.000000
6088316.500000 614159.187500 1104.000000
6088316.500000 614159.187500 1100.000000
6088316.500000 614159.187500 1096.000000
6088316.500000 614159.187500 1092.000000
6088316.500000 614159.187500 1088.000000
6088316.500000 614159.187500 1084.000000
